ply
format ascii 1.0
element vertex 2029
property float x
property float y
property float z
end_header
-177.927 -426.888 2355
-173.194 -426.845 2355
-168.391 -426.623 2354
-163.663 -426.583 2354
-159.139 -427.087 2357
-154.342 -426.868 2356
-149.614 -426.832 2356
-144.764 -426.434 2354
-140.043 -426.4 2354
-135.15 -425.823 2351
-130.658 -426.516 2355
-126.205 -427.39 2360
-121.682 -428.085 2364
-116.995 -428.237 2365
-112.21 -428.029 2364
-107.43 -427.821 2363
-102.524 -427.072 2359
-97.7594 -426.867 2358
-93.0787 -427.025 2359
-88.3948 -427.184 2360
-83.6009 -426.801 2358
-78.9498 -427.144 2360
-74.134 -426.582 2357
-69.3896 -426.384 2356
-64.595 -425.825 2353
-59.9147 -425.991 2354
-55.2308 -426.159 2355
-50.5005 -425.965 2354
-45.8718 -426.677 2358
-41.1576 -426.667 2358
-36.4439 -426.657 2358
-31.7438 -426.83 2359
-27.0286 -426.823 2359
-22.3041 -426.636 2358
-17.5987 -426.812 2359
-12.8895 -426.99 2360
-8.17623 -427.168 2361
-3.46064 -427.529 2363
1.26292 -427.89 2365
6.00208 -428.796 2370
10.7614 -429.703 2375
15.5537 -430.973 2382
20.3059 -430.796 2381
25.065 -430.801 2381
29.8616 -431.351 2384
34.6271 -431.359 2384
39.4753 -432.272 2389
44.3624 -433.368 2395
49.2738 -434.465 2401
54.2321 -435.744 2408
59.1944 -436.844 2414
63.969 -436.497 2412
68.8501 -436.875 2414
-259.628 -432.595 2409
-253.914 -431.097 2401
-248.545 -430.139 2396
-242.792 -428.465 2387
-237.575 -427.689 2383
-232.475 -427.094 2380
-227.292 -426.322 2376
-222.222 -425.729 2373
-217.165 -425.139 2370
-211.942 -424.191 2365
-206.917 -423.602 2362
-201.906 -423.016 2359
-197.075 -422.789 2358
-192.413 -422.921 2359
-187.669 -422.876 2359
-182.849 -422.653 2358
-178.035 -422.43 2357
-173.299 -422.388 2357
-168.422 -421.989 2355
-163.833 -422.308 2357
-159.169 -422.449 2358
-154.502 -422.59 2359
-149.706 -422.375 2358
-144.853 -421.982 2356
-140.188 -422.127 2357
-135.347 -421.736 2355
-130.794 -422.241 2358
-126.335 -423.106 2363
-121.756 -423.614 2366
-117.016 -423.585 2366
-112.325 -423.737 2367
-107.449 -423.174 2364
-102.499 -422.254 2359
-97.7775 -422.23 2359
-93.0959 -422.387 2360
-88.3735 -422.365 2360
-83.5457 -421.808 2357
-78.9979 -422.683 2362
-74.2107 -422.307 2360
-69.4321 -421.932 2358
-64.6071 -421.201 2354
-59.9768 -421.723 2357
-55.288 -421.888 2358
-50.4669 -420.981 2353
-45.8803 -422.043 2359
-41.1829 -422.211 2360
-36.4815 -422.381 2361
-31.7767 -422.552 2362
-27.0566 -422.545 2362
-22.3367 -422.539 2362
-17.6095 -422.356 2361
-12.9083 -422.889 2364
-8.18133 -422.707 2363
-3.46868 -423.779 2369
1.26311 -423.243 2366
6.00318 -424.138 2371
10.7588 -424.856 2375
15.5239 -425.395 2378
20.3096 -426.115 2382
25.0799 -426.3 2383
29.8419 -426.306 2383
34.6332 -426.672 2385
39.4824 -427.575 2390
44.3517 -428.48 2395
49.2416 -429.385 2400
54.2416 -431.008 2409
59.1802 -431.916 2414
64.1127 -432.647 2418
68.8907 -432.305 2416
-260.212 -428.727 2415
-254.065 -426.536 2403
-248.693 -425.589 2398
-243.242 -424.466 2392
-237.917 -423.522 2387
-232.908 -423.111 2385
-227.716 -422.347 2381
-222.543 -421.584 2377
-217.205 -420.469 2371
-211.982 -419.531 2366
-206.868 -418.772 2362
-202.029 -418.547 2361
-197.195 -418.322 2360
-192.612 -418.631 2362
-187.704 -418.232 2360
-183.194 -418.72 2363
-178.144 -417.968 2359
-173.332 -417.749 2358
-168.311 -417.001 2354
-163.655 -417.139 2355
-158.996 -417.278 2356
-154.269 -417.241 2356
-149.67 -417.559 2358
-144.88 -417.348 2357
-140.155 -417.314 2357
-135.373 -417.105 2356
-130.818 -417.604 2359
-126.306 -418.282 2363
-121.727 -418.784 2366
-116.988 -418.756 2366
-112.251 -418.729 2366
-107.333 -417.996 2362
-102.519 -417.617 2360
-97.8373 -417.77 2361
-93.1134 -417.748 2361
-88.3901 -417.727 2361
-83.5613 -417.176 2358
-78.9793 -417.864 2362
-74.1303 -417.139 2358
-69.504 -417.653 2361
-64.729 -417.283 2359
-59.9881 -417.092 2358
-55.2046 -416.548 2355
-50.4766 -416.358 2354
-45.8696 -417.231 2359
-41.1731 -417.398 2360
-36.5194 -418.096 2364
-31.7692 -417.735 2362
-27.0616 -417.905 2363
-22.3219 -417.545 2361
-17.6203 -417.894 2363
-12.9107 -418.244 2365
-8.18976 -418.419 2366
-3.46502 -418.594 2367
1.26224 -418.241 2365
6.00177 -419.303 2371
10.7425 -419.481 2372
15.5136 -420.369 2377
20.2792 -420.727 2379
25.0739 -421.439 2383
29.8348 -421.446 2383
34.6395 -421.984 2386
39.506 -423.054 2392
44.3597 -423.771 2396
49.2708 -424.844 2402
54.2289 -426.094 2409
59.1416 -426.815 2413
63.9915 -427.006 2414
68.7033 -426.314 2410
-259.72 -423.084 2411
-253.899 -421.444 2402
-248.842 -421.035 2400
-243.49 -420.1 2395
-238.26 -419.342 2391
-233.048 -418.585 2387
-227.95 -418.005 2384
-222.584 -416.901 2378
-216.97 -415.272 2369
-212.021 -414.871 2367
-206.732 -413.771 2361
-202.067 -413.898 2362
-197.316 -413.851 2362
-192.485 -413.631 2361
-187.66 -413.411 2360
-183.073 -413.718 2362
-178.177 -413.326 2360
-173.291 -412.935 2358
-168.414 -412.545 2356
-163.825 -412.857 2358
-159.026 -412.644 2357
-154.298 -412.607 2357
-149.572 -412.572 2357
-144.846 -412.538 2357
-140.122 -412.505 2357
-135.399 -412.473 2357
-130.898 -413.142 2361
-126.223 -413.287 2362
-121.647 -413.783 2365
-116.813 -413.405 2363
-112.13 -413.554 2364
-107.263 -413.003 2361
-102.451 -412.629 2359
-97.8144 -412.956 2361
-93.0522 -412.759 2360
-88.2948 -412.563 2359
-83.5419 -412.368 2358
-78.894 -412.699 2360
-74.2073 -412.856 2361
-69.5467 -413.189 2363
-64.7688 -412.824 2361
-59.9995 -412.46 2359
-55.2856 -412.447 2359
-50.5292 -412.085 2357
-45.9172 -412.948 2362
-41.2158 -413.112 2363
-36.4955 -413.103 2363
-31.7887 -413.27 2364
-27.0898 -413.613 2366
-22.3546 -413.433 2365
-17.6535 -413.953 2368
-12.9241 -413.949 2368
-8.19143 -413.772 2367
-3.46561 -413.945 2368
1.26244 -413.596 2366
6.00022 -414.47 2371
10.7401 -414.647 2372
15.5099 -415.524 2377
20.2829 -416.053 2380
25.0786 -416.758 2384
29.8653 -417.114 2386
34.6749 -417.646 2389
39.5463 -418.703 2395
44.4233 -419.587 2400
49.3414 -420.647 2406
54.2611 -421.533 2411
59.226 -422.596 2417
64.0825 -422.785 2418
68.8013 -422.101 2414
-260.521 -419.541 2419
-254.368 -417.4 2407
-249.199 -416.822 2404
-243.434 -415.205 2395
-238.304 -414.629 2392
-232.896 -413.535 2386
-227.706 -412.788 2382
-222.252 -411.523 2375
-217.103 -410.779 2371
-212.062 -410.21 2368
-206.947 -409.469 2364
-202.191 -409.422 2364
-197.27 -409.029 2362
-192.441 -408.811 2361
-187.617 -408.595 2360
-182.876 -408.552 2360
-177.985 -408.164 2358
-173.178 -407.951 2357
-168.233 -407.392 2354
-163.509 -407.354 2354
-158.72 -407.144 2353
-154.066 -407.281 2354
-149.41 -407.419 2355
-144.751 -407.558 2356
-140.208 -408.045 2359
-135.367 -407.667 2357
-130.979 -408.674 2363
-126.247 -408.645 2363
-121.516 -408.616 2363
-116.835 -408.762 2364
-112.152 -408.908 2365
-107.238 -408.192 2361
-102.558 -408.34 2362
-97.9162 -408.663 2364
-93.1096 -408.296 2362
-88.3866 -408.275 2362
-83.5934 -407.909 2360
-78.9761 -408.409 2363
-74.2217 -408.219 2362
-69.6189 -408.894 2366
-64.8636 -408.706 2365
-60.1637 -408.864 2366
-55.3432 -408.16 2362
-50.5819 -407.802 2360
-45.926 -408.309 2363
-41.2065 -408.299 2363
-36.5179 -408.636 2365
-31.7546 -408.11 2362
-27.0721 -408.622 2365
-22.359 -408.789 2366
-17.6421 -408.957 2367
-12.9157 -408.954 2367
-8.19299 -409.124 2368
-3.46489 -409.123 2368
1.26371 -409.295 2369
5.99631 -409.469 2370
10.742 -409.989 2373
15.5063 -410.683 2377
20.2611 -410.86 2378
25.0832 -412.075 2385
29.871 -412.427 2387
34.6959 -413.126 2391
39.537 -413.825 2395
44.4316 -414.872 2401
49.4118 -416.438 2410
54.3159 -417.141 2414
59.3102 -418.364 2421
64.1736 -418.55 2422
68.8993 -417.874 2418
-260.462 -414.598 2419
-254.627 -412.997 2410
-249.038 -411.74 2403
-243.581 -410.656 2397
-238.15 -409.573 2391
-232.941 -408.834 2387
-227.558 -407.754 2381
-222.295 -406.846 2376
-217.054 -405.94 2371
-212.013 -405.377 2368
-207.074 -404.987 2366
-202.487 -405.283 2368
-197.392 -404.553 2364
-192.56 -404.337 2363
-187.733 -404.123 2362
-182.989 -404.081 2362
-177.945 -403.356 2358
-173.211 -403.316 2358
-168.408 -403.106 2357
-163.541 -402.726 2355
-158.683 -402.348 2353
-153.9 -402.141 2352
-149.122 -401.936 2351
-144.595 -402.415 2354
-139.998 -402.725 2356
-135.394 -403.036 2358
-131.004 -404.031 2364
-126.378 -404.343 2366
-121.591 -404.144 2365
-116.908 -404.288 2366
-112.268 -404.604 2368
-107.304 -403.725 2363
-102.578 -403.701 2363
-97.8525 -403.678 2363
-93.0884 -403.486 2362
-88.3291 -403.295 2361
-83.5744 -403.104 2360
-78.9247 -403.428 2362
-74.2048 -403.41 2362
-69.4854 -403.394 2362
-64.7118 -403.037 2360
-60.0738 -403.536 2363
-55.3071 -403.181 2361
-50.549 -402.828 2359
-45.8963 -403.329 2362
-41.1622 -403.148 2361
-36.4325 -402.969 2360
-31.7474 -403.303 2362
-27.0888 -404.15 2367
-22.3444 -403.803 2365
-17.6456 -404.311 2368
-12.9183 -404.307 2368
-8.20161 -404.817 2371
-3.46711 -404.645 2370
1.26498 -404.986 2372
6.00492 -405.329 2374
10.7485 -405.501 2375
15.5157 -406.187 2379
20.282 -406.533 2381
25.0775 -407.221 2385
29.8891 -407.91 2389
34.7605 -409.113 2396
39.594 -409.634 2399
44.4769 -410.497 2404
49.4211 -411.703 2411
54.3037 -412.227 2414
59.2231 -412.923 2418
63.9735 -412.425 2415
68.7127 -411.928 2412
-266.164 -411.073 2427
-260.725 -410.167 2422
-254.675 -408.246 2411
-249.292 -407.342 2406
-243.729 -406.102 2399
-238.295 -405.032 2393
-232.79 -403.794 2386
-227.697 -403.234 2383
-222.338 -402.169 2377
-217.187 -401.442 2373
-212.323 -401.225 2372
-207.29 -400.67 2369
-202.527 -400.624 2369
-197.682 -400.41 2368
-192.598 -399.69 2364
-187.849 -399.647 2364
-182.948 -399.267 2362
-177.904 -398.551 2358
-172.952 -398.004 2355
-168.013 -397.459 2352
-163.088 -396.915 2349
-158.243 -396.541 2347
-153.669 -396.844 2349
-148.962 -396.81 2349
-144.44 -397.284 2352
-139.788 -397.421 2353
-135.421 -398.403 2359
-130.753 -398.542 2360
-126.243 -399.189 2364
-121.615 -399.499 2366
-116.881 -399.472 2366
-112.196 -399.616 2367
-107.325 -399.084 2364
-102.511 -398.723 2362
-97.8718 -399.039 2364
-93.1069 -398.848 2363
-88.384 -398.828 2363
-83.5912 -398.471 2361
-78.9071 -398.622 2362
-74.1254 -398.267 2360
-69.4698 -398.589 2362
-64.7248 -398.405 2361
-60.0349 -398.56 2362
-55.3416 -398.716 2363
-50.5804 -398.367 2361
-45.8665 -398.356 2361
-41.1704 -398.515 2362
-36.4397 -398.338 2361
-31.7269 -398.33 2361
-27.06 -398.998 2365
-22.33 -398.824 2364
-17.6267 -399.157 2366
-12.9045 -399.154 2366
-8.19282 -399.658 2369
-3.46933 -400.162 2372
1.26519 -400.331 2373
6.00862 -400.838 2376
10.7552 -401.009 2377
15.5317 -401.855 2382
20.2859 -401.859 2382
25.1032 -402.876 2388
29.9073 -403.389 2391
34.7236 -403.902 2394
39.5851 -404.754 2399
44.4854 -405.776 2405
49.4303 -406.968 2412
54.3137 -407.485 2415
59.283 -408.511 2421
64.0652 -408.187 2419
68.7256 -407.189 2413
-259.913 -404.053 2415
-253.878 -402.156 2404
-248.719 -401.598 2401
-243.065 -400.205 2393
-237.943 -399.65 2390
-232.543 -398.594 2384
-227.455 -398.042 2381
-222.101 -396.988 2375
-217.23 -396.772 2374
-212.097 -396.056 2370
-207.068 -395.508 2367
-202.396 -395.63 2368
-197.47 -395.251 2366
-192.636 -395.041 2365
-187.807 -394.832 2364
-182.907 -394.457 2362
-177.789 -393.582 2357
-172.767 -392.875 2353
-167.833 -392.336 2350
-162.982 -391.966 2348
-158.208 -391.763 2347
-153.504 -391.729 2347
-148.865 -391.862 2348
-144.408 -392.497 2352
-139.757 -392.633 2353
-135.219 -393.103 2356
-130.78 -393.908 2361
-126.108 -394.046 2362
-121.639 -394.853 2367
-116.954 -394.993 2368
-112.266 -395.135 2369
-107.302 -394.277 2364
-102.575 -394.253 2364
-97.7674 -393.898 2362
-93.0469 -393.877 2362
-88.2523 -393.523 2360
-83.5372 -393.504 2360
-78.8561 -393.653 2361
-74.0147 -392.969 2357
-69.3956 -393.454 2360
-64.6555 -393.272 2359
-59.9962 -393.592 2361
-55.3059 -393.746 2362
-50.6121 -393.901 2363
-45.8759 -393.724 2362
-41.1439 -393.547 2361
-36.4317 -393.539 2361
-31.7199 -393.531 2361
-27.0196 -393.691 2362
-22.3157 -393.853 2363
-17.6229 -394.348 2366
-12.9017 -394.345 2366
-8.19457 -395.009 2370
-3.4701 -395.508 2373
1.26647 -396.008 2376
6.00729 -396.009 2376
10.7572 -396.344 2378
15.5152 -396.68 2380
20.2899 -397.184 2383
25.0977 -398.023 2388
29.9007 -398.529 2391
34.7158 -399.036 2394
39.5761 -399.878 2399
44.4568 -400.721 2404
49.3989 -401.898 2411
54.3017 -402.576 2415
59.27 -403.589 2421
64.1832 -404.103 2424
68.995 -403.951 2423
-259.963 -399.294 2416
-254.35 -398.08 2409
-248.767 -396.868 2402
-243.214 -395.658 2395
-237.99 -394.944 2391
-232.492 -393.736 2384
-227.405 -393.19 2381
-222.426 -392.811 2379
-217.365 -392.267 2376
-212.229 -391.56 2372
-207.198 -391.018 2369
-202.351 -390.808 2368
-197.427 -390.434 2366
-192.512 -390.062 2364
-187.686 -389.855 2363
-182.711 -389.32 2360
-177.599 -388.455 2355
-172.435 -387.427 2349
-167.51 -386.895 2346
-162.599 -386.364 2343
-158.106 -386.824 2346
-153.47 -386.955 2347
-148.959 -387.416 2350
-144.376 -387.714 2352
-139.726 -387.848 2353
-135.074 -387.983 2354
-130.696 -388.942 2360
-126.187 -389.574 2364
-121.304 -389.052 2361
-116.83 -389.85 2366
-112.099 -389.825 2366
-107.278 -389.472 2364
-102.466 -389.119 2362
-97.7873 -389.262 2363
-92.987 -388.912 2361
-88.3077 -389.057 2362
-83.5542 -388.873 2361
-78.8722 -389.021 2362
-74.0613 -388.51 2359
-69.3217 -388.329 2358
-64.6414 -388.48 2359
-59.9577 -388.631 2360
-55.2938 -388.948 2362
-50.6011 -389.101 2363
-45.8852 -389.09 2363
-41.1698 -389.081 2363
-36.4392 -388.908 2362
-31.7264 -388.9 2362
-26.9909 -388.565 2360
-22.3014 -388.888 2362
-17.5967 -389.049 2363
-12.8935 -389.375 2365
-8.18597 -389.867 2368
-3.46649 -390.359 2371
1.26334 -390.359 2371
6.00076 -390.854 2374
10.7458 -391.185 2376
15.5118 -391.847 2380
20.2684 -392.015 2381
25.1027 -393.337 2389
29.9065 -393.837 2392
34.7226 -394.338 2395
39.5509 -394.84 2398
44.4471 -395.838 2404
49.3675 -396.836 2410
54.3345 -398 2417
59.2568 -398.671 2421
64.2484 -399.673 2427
69.0936 -399.687 2427
-259.046 -393.065 2408
-253.767 -392.356 2404
-248.298 -391.322 2398
-243.059 -390.616 2394
-237.739 -389.748 2389
-232.343 -388.718 2383
-227.355 -388.342 2381
-222.191 -387.641 2377
-217.135 -387.104 2374
-212.093 -386.569 2371
-206.89 -385.708 2366
-202.136 -385.664 2366
-197.301 -385.458 2365
-192.552 -385.415 2365
-187.566 -384.885 2362
-182.749 -384.682 2361
-177.561 -383.666 2355
-172.471 -382.813 2350
-167.902 -383.103 2352
-162.841 -382.252 2347
-158.273 -382.543 2349
-153.699 -382.835 2351
-148.927 -382.64 2350
-144.283 -382.771 2351
-139.755 -383.229 2354
-135.045 -383.199 2354
-130.446 -383.496 2356
-125.893 -383.957 2359
-121.381 -384.581 2363
-116.656 -384.556 2363
-112.027 -384.856 2365
-107.3 -384.833 2365
-102.531 -384.647 2364
-97.7248 -384.301 2362
-93.0062 -384.28 2362
-88.2512 -384.098 2361
-83.6069 -384.405 2363
-78.7884 -383.899 2360
-74.0767 -383.883 2360
-69.3067 -383.542 2358
-64.6274 -383.69 2359
-59.894 -383.514 2358
-55.235 -383.827 2360
-50.5687 -384.141 2362
-45.8559 -384.131 2362
-41.1609 -384.284 2363
-36.4623 -384.438 2364
-31.7329 -384.268 2363
-27.008 -384.1 2362
-22.3155 -384.419 2364
-17.6004 -384.415 2364
-12.8962 -384.737 2366
-8.1807 -384.898 2367
-3.46567 -385.547 2371
1.26409 -385.872 2373
5.98935 -385.385 2370
10.7389 -386.2 2375
15.4954 -386.69 2378
20.2384 -386.694 2378
25.0657 -388 2386
29.8999 -388.982 2392
34.715 -389.477 2395
39.5423 -389.973 2398
44.4374 -390.957 2404
49.3156 -391.618 2408
54.2554 -392.605 2414
59.1461 -393.105 2417
64.2343 -394.745 2427
69.0785 -394.76 2427
-258.452 -387.355 2403
-252.973 -386.333 2397
-248.141 -386.279 2397
-243.007 -385.743 2394
-237.887 -385.208 2391
-232.586 -384.352 2386
-227.593 -383.981 2384
-222.423 -383.288 2380
-217.271 -382.597 2376
-212.226 -382.068 2373
-207.02 -381.218 2368
-202.093 -380.853 2366
-197.258 -380.649 2365
-192.266 -380.124 2362
-187.447 -379.923 2361
-182.632 -379.723 2360
-177.598 -379.04 2356
-172.36 -377.877 2349
-167.795 -378.163 2351
-162.945 -377.806 2349
-158.509 -378.414 2353
-153.731 -378.22 2352
-149.085 -378.349 2353
-144.375 -378.318 2353
-139.725 -378.448 2354
-135.073 -378.58 2355
-130.418 -378.712 2356
-125.813 -379.006 2358
-121.149 -379.141 2359
-116.483 -379.276 2360
-111.672 -378.931 2358
-107.005 -379.068 2359
-102.335 -379.207 2360
-97.6211 -379.185 2360
-92.9471 -379.326 2361
-88.2696 -379.467 2362
-83.6243 -379.77 2364
-78.8383 -379.432 2362
-74.1236 -379.415 2362
-69.3212 -378.918 2359
-64.6684 -379.225 2361
-59.8558 -378.57 2357
-55.2468 -379.2 2361
-50.5793 -379.51 2363
-45.8849 -379.66 2364
-41.2044 -379.972 2366
-36.4853 -379.964 2366
-31.7531 -379.796 2365
-27.0365 -379.79 2365
-22.3297 -379.945 2366
-17.6115 -379.941 2366
-12.9043 -380.259 2368
-8.18597 -380.418 2369
-3.46353 -380.577 2370
1.26272 -380.737 2371
5.99311 -380.899 2372
10.7364 -381.382 2375
15.492 -381.867 2378
20.2596 -382.353 2381
25.0497 -383 2385
29.8685 -383.808 2390
34.6641 -384.137 2392
39.4844 -384.626 2395
44.3908 -385.759 2402
49.3051 -386.733 2408
54.3112 -388.19 2417
59.2556 -389.005 2422
64.4852 -391.427 2437
69.3199 -391.281 2436
-258.075 -381.987 2400
-252.919 -381.455 2397
-247.778 -380.925 2394
-242.752 -380.555 2392
-237.637 -380.026 2389
-232.244 -379.022 2383
-227.163 -378.497 2380
-222.189 -378.131 2378
-216.951 -377.29 2373
-212.002 -376.927 2371
-206.714 -375.928 2365
-201.879 -375.726 2364
-196.883 -375.208 2361
-192.225 -375.325 2362
-187.169 -374.65 2358
-182.362 -374.452 2357
-177.786 -374.732 2359
-172.984 -374.536 2358
-167.759 -373.388 2351
-163.327 -373.989 2355
-158.475 -373.637 2353
-153.764 -373.604 2353
-149.18 -373.89 2355
-144.406 -373.7 2354
-139.815 -373.988 2356
-135.159 -374.118 2357
-130.446 -374.09 2357
-125.733 -374.063 2357
-121.021 -374.037 2357
-116.36 -374.171 2358
-111.648 -374.147 2358
-106.937 -374.124 2358
-102.314 -374.419 2360
-97.5592 -374.24 2359
-92.9274 -374.537 2361
-88.2137 -374.518 2361
-83.5713 -374.817 2363
-78.8217 -374.642 2362
-74.1393 -374.784 2363
-69.3066 -374.135 2359
-64.6 -374.121 2359
-59.7924 -373.473 2355
-55.2117 -374.254 2360
-50.5473 -374.561 2362
-45.8753 -374.868 2364
-41.2306 -375.493 2368
-36.5085 -375.485 2368
-31.7732 -375.319 2367
-27.0423 -375.154 2366
-22.325 -375.149 2366
-17.6004 -374.986 2365
-12.8908 -375.142 2366
-8.1842 -375.615 2369
-3.45995 -375.456 2368
1.26295 -376.09 2372
5.99689 -376.408 2374
10.7387 -376.727 2376
15.4756 -376.729 2376
20.2467 -377.367 2380
25.0233 -377.848 2383
29.8248 -378.488 2387
34.6567 -379.288 2392
39.4925 -379.93 2396
44.3629 -380.731 2401
49.2742 -381.693 2407
54.3444 -383.606 2419
59.341 -384.728 2426
64.5243 -386.803 2439
69.3905 -386.817 2439
-258.558 -377.891 2405
-253.393 -377.366 2402
-248.243 -376.842 2399
-242.904 -376.006 2394
-237.587 -375.17 2389
-232.098 -374.022 2382
-226.924 -373.346 2378
-222.049 -373.142 2377
-216.996 -372.626 2374
-212.047 -372.267 2372
-207.021 -371.753 2369
-202.007 -371.239 2366
-197.091 -370.884 2364
-192.104 -370.373 2361
-187.447 -370.49 2362
-182.633 -370.295 2361
-177.674 -369.787 2358
-172.875 -369.593 2357
-167.938 -369.088 2354
-163.293 -369.21 2355
-158.509 -369.02 2354
-153.993 -369.458 2357
-149.149 -369.113 2355
-144.56 -369.396 2357
-139.845 -369.366 2357
-135.188 -369.494 2358
-130.529 -369.624 2359
-125.813 -369.597 2359
-120.996 -369.258 2357
-116.188 -368.92 2355
-111.435 -368.74 2354
-106.734 -368.717 2354
-102.162 -369.166 2357
-97.4561 -369.145 2357
-92.8294 -369.438 2359
-88.158 -369.576 2360
-83.6247 -370.342 2365
-78.8053 -369.855 2362
-74.0925 -369.839 2362
-69.2923 -369.355 2359
-64.5318 -369.028 2357
-59.7292 -368.388 2353
-55.13 -369.003 2357
-50.5368 -369.775 2362
-45.8464 -369.921 2363
-41.2046 -370.539 2367
-36.4854 -370.531 2367
-31.7667 -370.524 2367
-27.0367 -370.361 2366
-22.3299 -370.512 2367
-17.6339 -370.978 2370
-12.8881 -370.349 2366
-8.17568 -370.503 2367
-3.46076 -370.815 2369
1.26424 -371.754 2375
5.99044 -371.285 2372
10.7454 -372.226 2378
15.4919 -372.385 2379
20.2595 -372.859 2382
25.0181 -373.02 2383
29.8184 -373.652 2387
34.635 -374.285 2391
39.5171 -375.388 2398
44.4459 -376.649 2406
49.3867 -377.755 2413
54.5353 -380.114 2428
59.5243 -381.065 2434
64.6167 -382.487 2443
69.2905 -381.405 2436
-257.644 -371.762 2397
-252.708 -371.554 2396
-247.881 -371.502 2396
-242.448 -370.522 2390
-237.339 -370.007 2387
-232.049 -369.184 2382
-227.068 -368.827 2380
-221.909 -368.161 2376
-217.226 -368.27 2377
-212.093 -367.606 2373
-206.978 -366.944 2369
-201.966 -366.437 2366
-196.967 -365.931 2363
-192.227 -365.891 2363
-187.249 -365.388 2360
-182.982 -366.279 2366
-177.637 -365.003 2358
-172.766 -364.658 2356
-168.046 -364.623 2356
-163.12 -364.125 2353
-158.611 -364.556 2356
-153.896 -364.524 2356
-149.308 -364.802 2358
-144.714 -365.082 2360
-139.994 -365.053 2360
-135.275 -365.024 2360
-130.557 -364.997 2360
-125.734 -364.662 2358
-120.92 -364.327 2356
-116.262 -364.458 2357
-111.46 -364.125 2355
-106.711 -363.948 2354
-102.185 -364.545 2358
-97.4775 -364.525 2358
-92.8103 -364.66 2359
-88.1399 -364.796 2360
-83.5016 -365.088 2362
-78.789 -365.071 2362
-73.9833 -364.592 2359
-69.278 -364.577 2359
-64.4912 -364.1 2356
-59.7169 -363.624 2353
-55.0954 -364.076 2356
-50.5264 -364.992 2362
-45.8758 -365.446 2365
-41.2136 -365.901 2368
-36.4935 -365.893 2368
-31.7871 -366.04 2369
-27.0313 -365.571 2366
-22.3159 -365.566 2366
-17.6007 -365.562 2366
-12.8584 -364.786 2361
-8.1741 -365.711 2367
-3.45865 -365.864 2368
1.26448 -367.1 2376
6.00183 -367.256 2377
10.7613 -368.03 2382
15.5017 -367.878 2381
20.2382 -367.727 2380
25.0024 -368.041 2382
29.7873 -368.51 2385
34.5988 -369.135 2389
39.4265 -369.76 2393
44.3813 -371.314 2403
49.2947 -372.251 2409
54.4342 -374.58 2424
59.5118 -376.137 2434
64.6564 -377.849 2445
69.4185 -377.245 2441
-258.236 -367.811 2403
-253.078 -367.3 2400
-248.555 -367.708 2403
-243.007 -366.587 2396
-237.489 -365.467 2389
-232.197 -364.654 2384
-227.117 -364.149 2381
-222.051 -363.644 2378
-217.273 -363.6 2378
-212.228 -363.098 2375
-207.11 -362.444 2371
-202.01 -361.791 2367
-197.094 -361.445 2365
-192.269 -361.252 2364
-187.211 -360.603 2360
-182.558 -360.718 2361
-177.827 -360.682 2361
-172.804 -360.035 2357
-167.941 -359.695 2355
-163.156 -359.509 2354
-158.512 -359.629 2355
-153.865 -359.75 2356
-149.404 -360.33 2360
-144.623 -360.148 2359
-139.966 -360.272 2360
-135.305 -360.397 2361
-130.475 -360.065 2359
-125.655 -359.734 2357
-120.844 -359.403 2355
-116.14 -359.379 2355
-111.248 -358.746 2351
-106.599 -358.877 2352
-102.034 -359.313 2355
-97.251 -358.988 2353
-92.6734 -359.427 2356
-88.01 -359.561 2357
-83.4492 -360.154 2361
-78.7398 -360.138 2361
-74.0309 -360.122 2361
-69.2934 -359.955 2360
-64.5329 -359.637 2358
-59.8064 -359.472 2357
-55.1076 -359.46 2357
-50.4948 -360.06 2361
-45.8277 -360.355 2363
-41.153 -360.651 2365
-36.4398 -360.644 2365
-31.7135 -360.484 2364
-27.0143 -360.631 2365
-22.302 -360.626 2365
-17.5971 -360.775 2366
-12.8775 -360.619 2365
-8.17929 -361.227 2369
-3.45656 -360.921 2367
1.26259 -361.835 2373
5.99555 -362.141 2375
10.7636 -363.363 2383
15.518 -363.518 2384
20.2766 -363.674 2385
25.0603 -364.136 2388
29.8187 -364.142 2388
34.6352 -364.758 2392
39.5174 -365.833 2399
44.4832 -367.367 2409
49.4278 -368.444 2416
54.6252 -371.047 2433
59.7197 -372.583 2443
64.7752 -373.664 2450
-253.87 -363.636 2408
-249.022 -363.586 2408
-242.958 -361.725 2396
-237.441 -360.62 2389
-232.15 -359.818 2384
-227.071 -359.319 2381
-221.819 -358.52 2376
-217.138 -358.627 2377
-212.096 -358.131 2374
-206.894 -357.335 2369
-201.969 -356.992 2367
-196.721 -356.048 2361
-192.067 -356.16 2362
-187.332 -356.122 2362
-182.444 -355.783 2360
-178.017 -356.35 2364
-172.622 -354.959 2355
-167.836 -354.774 2354
-163.054 -354.59 2353
-158.547 -355.01 2356
-153.834 -354.979 2356
-149.311 -355.401 2359
-144.655 -355.522 2360
-139.997 -355.645 2361
-135.22 -355.467 2360
-130.339 -354.988 2357
-125.683 -355.113 2358
-120.82 -354.637 2355
-116.166 -354.764 2356
-111.368 -354.44 2354
-106.759 -354.72 2356
-102.014 -354.548 2355
-97.4381 -354.98 2358
-92.7729 -355.112 2359
-88.0297 -354.943 2358
-83.4325 -355.378 2361
-78.7574 -355.512 2362
-73.9848 -355.196 2360
-69.2502 -355.031 2359
-64.4652 -354.567 2356
-59.769 -354.554 2356
-55.0966 -354.694 2357
-50.4633 -355.134 2360
-45.7604 -355.125 2360
-41.1101 -355.568 2363
-36.371 -355.259 2361
-31.6536 -355.102 2360
-26.9518 -355.096 2360
-22.241 -354.941 2359
-17.5564 -355.238 2361
-12.8479 -355.084 2360
-8.16049 -355.684 2364
-3.45885 -356.435 2369
1.26336 -357.338 2375
5.99939 -357.64 2377
10.7614 -358.544 2383
15.5149 -358.697 2384
20.2809 -359.002 2386
25.0867 -359.759 2391
29.85 -359.764 2391
34.7005 -360.673 2397
39.5917 -361.734 2404
44.6034 -363.548 2416
49.5611 -364.611 2423
54.7714 -367.18 2440
59.9277 -368.997 2452
65.0002 -370.063 2459
-254.136 -359.198 2411
-249.179 -358.999 2410
-243.112 -357.163 2398
-237.494 -355.925 2390
-232.201 -355.133 2385
-227.026 -354.493 2381
-221.775 -353.704 2376
-216.82 -353.363 2374
-211.965 -353.172 2373
-206.765 -352.386 2368
-201.844 -352.048 2366
-196.765 -351.414 2362
-192.029 -351.375 2362
-187.295 -351.338 2362
-182.562 -351.302 2362
-177.831 -351.266 2362
-172.955 -350.934 2360
-168.088 -350.603 2358
-163.23 -350.273 2356
-158.583 -350.391 2357
-153.738 -350.062 2355
-149.092 -350.181 2356
-144.443 -350.301 2357
-139.554 -349.827 2354
-134.965 -350.098 2356
-130.147 -349.774 2354
-125.552 -350.046 2356
-120.693 -349.576 2353
-116.094 -349.85 2355
-111.251 -349.382 2352
-106.738 -349.955 2356
-101.993 -349.786 2355
-97.295 -349.767 2355
-92.5973 -349.748 2355
-88.0124 -350.176 2358
-83.3808 -350.456 2360
-78.7086 -350.589 2361
-74.0015 -350.574 2361
-69.3246 -350.708 2362
-64.5347 -350.25 2359
-59.8334 -350.238 2359
-55.1091 -350.078 2358
-50.4534 -350.364 2360
-45.7515 -350.355 2360
-41.0324 -350.198 2359
-36.3484 -350.339 2360
-31.6206 -350.035 2358
-26.9123 -349.881 2357
-22.2366 -350.174 2359
-17.5678 -350.763 2363
-12.8779 -351.206 2366
-8.16932 -351.352 2367
-3.45808 -351.648 2369
1.26095 -351.945 2371
5.98795 -352.242 2373
10.7367 -352.986 2378
15.4922 -353.434 2381
20.2513 -353.735 2383
25.0712 -354.778 2390
29.8441 -354.932 2391
34.6937 -355.829 2397
39.6167 -357.172 2406
44.6499 -359.111 2419
49.7557 -361.198 2433
54.9625 -363.584 2449
60.1358 -365.377 2461
-248.82 -353.673 2407
-243.47 -352.891 2402
-237.646 -351.375 2392
-232.253 -350.448 2386
-227.077 -349.816 2382
-221.825 -349.038 2377
-216.869 -348.701 2375
-211.834 -348.219 2372
-206.55 -347.298 2366
-201.463 -346.671 2362
-196.477 -346.192 2359
-191.504 -345.714 2356
-187.021 -346.117 2359
-182.604 -346.668 2363
-177.646 -346.193 2360
-172.848 -346.012 2359
-168.197 -346.126 2360
-163.336 -345.801 2358
-158.485 -345.476 2356
-153.904 -345.739 2358
-149.126 -345.563 2357
-144.292 -345.241 2355
-139.527 -345.067 2354
-134.938 -345.334 2356
-129.956 -344.575 2351
-125.368 -344.844 2353
-120.618 -344.673 2352
-116.071 -345.09 2355
-111.277 -344.775 2353
-106.717 -345.194 2356
-101.974 -345.027 2355
-97.3587 -345.301 2357
-92.6187 -345.136 2356
-87.9952 -345.411 2358
-83.3646 -345.688 2360
-78.6932 -345.818 2361
-73.9872 -345.804 2361
-69.2817 -345.79 2361
-64.5221 -345.484 2359
-59.8218 -345.472 2359
-55.1685 -345.754 2361
-50.4864 -345.89 2362
-45.7813 -345.881 2362
-41.0765 -345.873 2362
-36.3414 -345.572 2360
-31.6279 -345.419 2359
-26.9299 -345.414 2359
-22.2417 -345.555 2360
-17.572 -346.137 2364
-12.8756 -346.427 2366
-8.16422 -346.425 2366
-3.45893 -347.01 2370
1.26173 -347.449 2373
5.99687 -348.035 2377
10.739 -348.33 2379
15.5021 -348.918 2383
20.273 -349.361 2386
25.0767 -350.097 2391
29.8757 -350.542 2394
34.7159 -351.28 2399
39.609 -352.313 2406
44.6411 -354.225 2419
49.7255 -356.137 2432
54.8396 -357.905 2444
59.9531 -359.38 2454
-255.196 -351.019 2422
-249.495 -349.812 2414
-244.031 -348.895 2408
-238.196 -347.4 2398
-232.403 -345.906 2388
-227.128 -345.137 2383
-221.782 -344.225 2377
-216.645 -343.604 2373
-211.436 -342.839 2368
-206.423 -342.365 2365
-201.339 -341.746 2361
-196.522 -341.564 2360
-191.874 -341.671 2361
-187.064 -341.49 2360
-182.414 -341.599 2361
-177.837 -341.854 2363
-172.961 -341.531 2361
-168.165 -341.354 2360
-163.374 -341.178 2359
-158.454 -340.713 2356
-153.613 -340.394 2354
-148.781 -340.076 2352
-143.958 -339.759 2350
-139.263 -339.732 2350
-134.626 -339.85 2351
-129.876 -339.68 2350
-125.237 -339.801 2351
-120.493 -339.633 2350
-115.901 -339.899 2352
-111.255 -340.022 2353
-106.697 -340.435 2356
-101.997 -340.415 2356
-97.3813 -340.685 2358
-92.7188 -340.811 2359
-87.9784 -340.649 2358
-83.3133 -340.778 2359
-78.6781 -341.051 2361
-73.9104 -340.748 2359
-69.2685 -341.023 2361
-64.5645 -341.01 2361
-59.8609 -340.998 2361
-55.1813 -341.132 2362
-50.4982 -341.266 2363
-45.7919 -341.257 2363
-41.0688 -341.104 2362
-36.3191 -340.664 2359
-31.5815 -340.224 2356
-26.9362 -340.796 2360
-22.2563 -341.08 2362
-17.5611 -341.221 2363
-12.873 -341.651 2366
-8.17654 -342.227 2370
-3.45833 -342.226 2370
1.25985 -342.226 2370
5.98562 -342.66 2373
10.7189 -342.95 2375
15.4797 -343.675 2380
20.2605 -344.4 2385
25.0824 -345.415 2392
29.9198 -346.287 2398
34.7959 -347.304 2405
39.7331 -348.611 2414
44.7433 -350.208 2425
49.7976 -351.805 2436
54.8963 -353.404 2447
59.9901 -354.715 2456
-249.757 -345.352 2417
-244.491 -344.734 2413
-238.647 -343.26 2403
-232.942 -341.93 2394
-227.371 -340.743 2386
-221.926 -339.701 2379
-216.695 -338.946 2374
-211.306 -337.906 2367
-206.297 -337.438 2364
-201.215 -336.829 2360
-196.485 -336.791 2360
-191.593 -336.469 2358
-187.107 -336.862 2361
-182.302 -336.684 2360
-177.803 -337.078 2363
-173.001 -336.902 2362
-168.062 -336.442 2359
-163.412 -336.554 2360
-158.492 -336.095 2357
-153.584 -335.638 2354
-148.943 -335.752 2355
-144.237 -335.725 2355
-139.474 -335.556 2354
-134.658 -335.245 2352
-129.962 -335.22 2352
-125.266 -335.196 2352
-120.624 -335.315 2353
-115.978 -335.435 2354
-111.376 -335.699 2356
-106.767 -335.963 2358
-102.151 -336.229 2360
-97.4455 -336.21 2360
-92.8192 -336.477 2362
-88.0737 -336.318 2361
-83.3681 -336.302 2361
-78.6633 -336.286 2361
-73.9277 -336.13 2360
-69.1674 -335.831 2358
-64.5523 -336.246 2361
-59.8243 -336.092 2360
-55.1709 -336.366 2362
-50.4887 -336.498 2363
-45.7834 -336.49 2363
-41.0436 -336.197 2361
-36.3584 -336.332 2362
-31.6828 -336.61 2364
-26.9654 -336.462 2363
-22.2427 -336.173 2361
-17.5728 -336.739 2365
-12.8707 -336.878 2366
-8.17162 -337.304 2369
-3.45773 -337.445 2370
1.26064 -337.729 2372
5.98699 -338.015 2374
10.7304 -338.586 2378
15.4896 -339.158 2382
20.2566 -339.589 2385
25.0775 -340.59 2392
29.9391 -341.734 2400
34.8182 -342.737 2407
39.7748 -344.168 2417
44.7901 -345.742 2428
49.829 -347.175 2438
54.9083 -348.609 2448
-249.917 -340.743 2419
-244.648 -340.134 2415
-238.602 -338.399 2403
-232.898 -337.087 2394
-227.423 -336.059 2387
-221.978 -335.031 2380
-216.745 -334.286 2375
-211.177 -332.98 2366
-206.345 -332.8 2365
-201.348 -332.34 2362
-196.614 -332.303 2362
-191.801 -332.126 2361
-187.152 -332.232 2362
-182.423 -332.197 2362
-177.62 -332.023 2361
-172.896 -331.991 2361
-168.173 -331.959 2361
-163.313 -331.647 2359
-158.529 -331.477 2358
-153.62 -331.026 2355
-148.978 -331.138 2356
-144.271 -331.111 2356
-139.447 -330.804 2354
-134.747 -330.778 2354
-129.937 -330.473 2352
-125.296 -330.589 2353
-120.499 -330.286 2351
-115.808 -330.264 2351
-111.213 -330.524 2353
-106.611 -330.784 2355
-102.046 -331.187 2358
-97.386 -331.309 2359
-92.7233 -331.431 2360
-87.9826 -331.274 2359
-83.3527 -331.539 2361
-78.5487 -331.103 2358
-73.8827 -331.229 2359
-69.1545 -331.076 2358
-64.513 -331.344 2360
-59.8132 -331.333 2360
-55.1373 -331.462 2361
-50.4579 -331.593 2362
-45.7555 -331.584 2362
-41.0186 -331.296 2360
-36.367 -331.709 2363
-31.677 -331.844 2364
-26.9832 -331.979 2365
-22.2669 -331.834 2364
-17.5769 -332.111 2366
-12.8628 -331.968 2365
-8.16328 -332.246 2367
-3.45569 -332.526 2369
1.26144 -333.228 2374
5.99076 -333.509 2376
10.7237 -333.651 2377
15.4933 -334.496 2383
20.2528 -334.78 2385
25.0518 -335.486 2390
29.8835 -336.333 2396
34.7538 -337.322 2403
39.6522 -338.312 2410
44.7264 -340.425 2425
49.7174 -341.557 2433
54.6961 -342.409 2439
-249.561 -335.434 2416
-244.501 -335.111 2414
-238.657 -333.679 2404
-232.952 -332.386 2395
-227.476 -331.372 2388
-222.217 -330.637 2383
-217.07 -330.042 2379
-211.852 -329.309 2374
-206.743 -328.716 2370
-201.567 -327.985 2365
-196.745 -327.81 2364
-191.847 -327.497 2362
-187.117 -327.462 2362
-182.234 -327.151 2360
-177.587 -327.256 2361
-172.717 -326.947 2359
-167.928 -326.777 2358
-163.283 -326.886 2359
-158.5 -326.718 2358
-153.788 -326.689 2358
-149.014 -326.523 2357
-144.306 -326.496 2357
-139.659 -326.609 2358
-134.665 -325.891 2353
-129.913 -325.728 2352
-125.114 -325.428 2350
-120.528 -325.682 2352
-115.787 -325.522 2351
-111.288 -326.056 2355
-106.547 -325.897 2354
-101.897 -326.017 2355
-97.3269 -326.414 2358
-92.8241 -327.089 2363
-88.0784 -326.934 2362
-83.4079 -327.056 2363
-78.6008 -326.626 2360
-73.8691 -326.474 2359
-69.1419 -326.323 2358
-64.5012 -326.587 2360
-59.7262 -326.161 2357
-55.0805 -326.427 2359
-50.3418 -326.141 2357
-45.6697 -326.271 2358
-40.9938 -326.401 2359
-36.3296 -326.671 2361
-31.6712 -327.08 2364
-27.0012 -327.489 2367
-22.2817 -327.347 2366
-17.5737 -327.343 2366
-12.8551 -327.064 2364
-8.15826 -327.338 2366
-3.45657 -327.891 2370
1.26117 -328.444 2374
5.99469 -328.998 2378
10.7443 -329.553 2382
15.5098 -330.109 2386
20.266 -330.251 2387
25.0683 -330.947 2392
29.8655 -331.367 2395
34.7185 -332.203 2401
39.5463 -332.625 2404
44.5152 -334.016 2414
49.3407 -334.163 2415
-249.618 -330.688 2417
-244.456 -330.233 2414
-238.812 -329.094 2406
-233.202 -327.957 2398
-227.816 -327.095 2392
-222.549 -326.371 2387
-217.122 -325.374 2380
-211.992 -324.788 2376
-206.88 -324.204 2372
-201.7 -323.483 2367
-196.875 -323.311 2366
-192.137 -323.276 2366
-187.4 -323.241 2366
-182.433 -322.798 2363
-177.555 -322.492 2361
-172.613 -322.051 2358
-167.755 -321.747 2356
-163.184 -321.99 2358
-158.337 -321.688 2356
-153.76 -321.933 2358
-149.113 -322.042 2359
-144.219 -321.606 2356
-139.456 -321.445 2355
-134.584 -321.01 2352
-129.89 -320.986 2352
-125.144 -320.827 2351
-120.557 -321.078 2353
-115.815 -320.92 2352
-111.126 -320.9 2352
-106.482 -321.017 2353
-101.835 -321.134 2354
-97.268 -321.526 2357
-92.6109 -321.645 2358
-87.9506 -321.765 2359
-83.3222 -322.023 2361
-78.5534 -321.735 2359
-73.8558 -321.722 2359
-69.1587 -321.709 2359
-64.5442 -322.106 2362
-59.6901 -321.277 2356
-55.0473 -321.539 2358
-50.3328 -321.393 2357
-45.6033 -321.112 2355
-40.8994 -320.968 2354
-36.2923 -321.643 2359
-31.6253 -321.909 2361
-26.9621 -322.313 2364
-22.2682 -322.445 2365
-17.5558 -322.305 2364
-12.8473 -322.166 2363
-8.15686 -322.573 2366
-3.45162 -322.709 2367
1.26091 -323.663 2374
5.99359 -324.209 2378
10.7467 -324.892 2383
15.507 -325.304 2386
20.2792 -325.716 2389
25.0532 -325.993 2391
29.885 -326.816 2397
34.77 -327.912 2405
39.6047 -328.328 2408
44.544 -329.426 2416
49.3521 -329.435 2416
-248.541 -324.457 2407
-243.602 -324.278 2406
-238.372 -323.696 2402
-233.16 -323.115 2398
-227.775 -322.266 2392
-222.323 -321.282 2385
-216.992 -320.435 2379
-212.043 -320.127 2377
-206.93 -319.551 2373
-201.749 -318.842 2368
-196.84 -318.537 2366
-192.021 -318.368 2365
-187.129 -318.065 2363
-182.246 -317.763 2361
-177.297 -317.327 2358
-172.362 -316.892 2355
-167.725 -316.997 2356
-163.016 -316.967 2356
-158.308 -316.939 2356
-153.732 -317.18 2358
-149.023 -317.153 2358
-144.193 -316.858 2356
-139.372 -316.564 2354
-134.445 -316.002 2350
-129.922 -316.382 2353
-125.122 -316.09 2351
-120.536 -316.337 2353
-115.696 -315.913 2350
-111.106 -316.162 2352
-106.327 -315.874 2350
-101.731 -316.124 2352
-97.0444 -316.107 2352
-92.5944 -316.896 2358
-87.9722 -317.149 2360
-83.3075 -317.268 2361
-78.6392 -317.388 2362
-73.9678 -317.509 2363
-69.2049 -317.228 2361
-64.5327 -317.35 2362
-59.7302 -316.802 2358
-54.9674 -316.389 2355
-50.2597 -316.245 2354
-45.5758 -316.237 2354
-40.8922 -316.229 2354
-36.3013 -317.028 2360
-31.6331 -317.291 2362
-26.9801 -317.823 2366
-22.2455 -317.416 2363
-17.56 -317.681 2365
-12.8451 -317.41 2363
-8.15203 -317.677 2365
-3.4496 -317.81 2366
1.26118 -319.019 2375
5.99251 -319.422 2378
10.7448 -320.095 2383
15.5171 -320.769 2388
20.2841 -321.041 2390
25.0486 -321.18 2391
29.8921 -322.125 2398
34.7493 -322.937 2404
39.5647 -323.212 2406
44.4992 -324.294 2414
49.384 -324.84 2418
-2159.54 -1333.72 9925
-2142.11 -1335.35 9940
-248.703 -319.863 2409
-243.256 -319.023 2403
-238.231 -318.715 2401
-232.924 -318.01 2396
-227.449 -317.04 2389
-222.283 -316.47 2385
-216.953 -315.635 2379
-212.095 -315.465 2378
-206.981 -314.898 2374
-201.884 -314.331 2370
-197.138 -314.296 2370
-192.15 -313.864 2367
-187.254 -313.566 2365
-182.291 -313.136 2362
-177.492 -312.972 2361
-172.405 -312.278 2356
-167.695 -312.248 2356
-162.918 -312.087 2355
-158.348 -312.324 2357
-153.771 -312.562 2359
-148.871 -312.138 2356
-144.045 -311.847 2354
-139.288 -311.69 2353
-134.536 -311.534 2352
-129.954 -311.775 2354
-125.047 -311.223 2350
-120.463 -311.467 2352
-115.725 -311.314 2351
-110.992 -311.162 2350
-106.309 -311.143 2350
-101.67 -311.257 2351
-97.0273 -311.372 2352
-92.3819 -311.488 2353
-87.8076 -311.869 2356
-83.1516 -311.987 2357
-78.4923 -312.105 2358
-73.8609 -312.357 2360
-69.1635 -312.344 2360
-64.5214 -312.597 2362
-59.7957 -312.454 2361
-55.0278 -312.047 2358
-50.251 -311.509 2354
-45.5873 -311.633 2355
-40.9372 -311.89 2357
-36.295 -312.28 2360
-31.6277 -312.539 2362
-26.9868 -313.195 2367
-22.2604 -312.926 2365
-17.5571 -312.923 2365
-12.8429 -312.656 2363
-8.15757 -313.183 2367
-3.45342 -313.447 2369
1.26039 -314.108 2374
5.99144 -314.638 2378
10.752 -315.566 2385
15.5079 -315.833 2387
20.2635 -315.968 2388
25.0546 -316.502 2392
29.8495 -316.903 2395
34.6853 -317.571 2400
39.5084 -317.974 2403
44.4177 -318.908 2410
-2160.02 -1313.97 9929
-2141.94 -1315.18 9941
-249.073 -315.524 2413
-243.415 -314.435 2405
-238.09 -313.74 2400
-233.078 -313.438 2398
-227.6 -312.483 2391
-222.338 -311.791 2386
-217.007 -310.969 2380
-212.058 -310.67 2378
-207.119 -310.373 2376
-202.019 -309.815 2372
-197.103 -309.52 2370
-192.116 -309.094 2367
-187.142 -308.67 2364
-182.105 -308.116 2360
-177.31 -307.954 2359
-172.375 -307.532 2356
-167.595 -307.373 2355
-162.89 -307.344 2355
-158.186 -307.316 2355
-153.418 -307.159 2354
-148.782 -307.264 2355
-144.02 -307.108 2354
-139.441 -307.345 2356
-134.741 -307.321 2356
-130.042 -307.298 2356
-125.131 -306.754 2352
-120.545 -306.994 2354
-115.803 -306.844 2353
-111.02 -306.563 2351
-106.335 -306.545 2351
-101.782 -306.918 2354
-97.0518 -306.771 2353
-92.5229 -307.276 2357
-87.8671 -307.391 2358
-83.2784 -307.767 2361
-78.5786 -307.753 2361
-73.8795 -307.74 2361
-69.2102 -307.858 2362
-64.5102 -307.847 2362
-59.76 -307.575 2360
-55.0417 -307.435 2359
-50.3277 -307.296 2358
-45.618 -307.157 2357
-40.9301 -307.15 2357
-36.2887 -307.534 2360
-31.6089 -307.659 2361
-26.948 -308.045 2364
-22.2661 -308.301 2366
-17.554 -308.168 2365
-12.8461 -308.035 2364
-8.16297 -308.684 2369
-3.45856 -309.205 2373
1.2612 -309.595 2376
6.0055 -310.639 2384
10.7501 -310.77 2385
15.5053 -311.033 2387
20.277 -311.427 2390
25.0817 -312.083 2395
29.8817 -312.478 2398
34.7804 -313.657 2407
39.6166 -314.054 2410
44.4467 -314.322 2412
-2162.04 -1295.13 9940
-2142.2 -1295.27 9944
-2121.95 -1295.16 9946
-250.578 -312.588 2428
-244.487 -311.001 2416
-238.843 -309.93 2408
-233.427 -309.118 2402
-227.941 -308.178 2395
-222.207 -306.853 2385
-216.878 -306.044 2379
-212.111 -306.007 2379
-206.909 -305.328 2374
-201.9 -304.908 2371
-197.07 -304.745 2370
-192.164 -304.455 2368
-187.19 -304.037 2365
-182.074 -303.363 2360
-177.28 -303.204 2359
-172.419 -302.917 2357
-167.638 -302.76 2356
-163 -302.861 2357
-158.159 -302.576 2355
-153.652 -302.935 2358
-148.883 -302.781 2357
-144.24 -302.885 2358
-139.358 -302.476 2355
-134.833 -302.838 2358
-129.965 -302.43 2355
-125.429 -302.794 2358
-120.575 -302.388 2355
-115.784 -302.111 2353
-111.048 -301.963 2352
-106.408 -302.073 2353
-101.764 -302.184 2354
-97.0352 -302.039 2353
-92.4286 -302.28 2355
-87.7775 -302.393 2356
-83.1936 -302.763 2359
-78.532 -302.878 2360
-73.9295 -303.25 2363
-69.2571 -303.367 2364
-64.5538 -303.355 2364
-59.8259 -303.216 2363
-55.1257 -303.207 2363
-50.4045 -303.069 2362
-45.6684 -302.805 2360
-40.9927 -302.926 2361
-36.3287 -303.176 2363
-31.657 -303.427 2365
-26.9663 -303.55 2366
-22.2623 -303.546 2366
-17.5511 -303.415 2365
-12.8603 -303.669 2367
-8.16509 -304.052 2370
-3.45802 -304.436 2373
1.26255 -305.205 2379
5.99928 -305.591 2382
10.7436 -305.849 2384
15.5155 -306.493 2389
20.2904 -306.88 2392
25.1297 -307.911 2400
29.9637 -308.557 2405
34.9189 -310.102 2417
39.7906 -310.622 2421
44.7338 -311.527 2428
-250.536 -307.693 2428
-244.344 -306.005 2415
-238.604 -304.824 2406
-233.484 -304.404 2403
-227.808 -303.225 2394
-222.076 -301.921 2384
-216.842 -301.251 2379
-211.808 -300.836 2376
-207.049 -300.801 2376
-202.036 -300.387 2373
-197.12 -300.1 2371
-192.132 -299.688 2368
-187.237 -299.403 2366
-182.043 -298.613 2360
-177.25 -298.457 2359
-172.39 -298.174 2357
-167.681 -298.146 2357
-163.042 -298.245 2358
-158.267 -298.092 2357
-153.561 -298.065 2357
-148.921 -298.167 2358
-144.094 -297.89 2356
-139.512 -298.119 2358
-135.039 -298.602 2362
-130.329 -298.579 2362
-125.514 -298.305 2360
-120.709 -298.032 2358
-115.863 -297.633 2355
-111.124 -297.488 2354
-106.345 -297.217 2352
-101.704 -297.326 2353
-97.0603 -297.436 2354
-92.5702 -298.052 2359
-87.9119 -298.163 2360
-83.356 -298.655 2364
-78.652 -298.641 2364
-73.9797 -298.755 2365
-69.2162 -298.49 2363
-64.5704 -298.732 2365
-59.8158 -298.469 2363
-55.1397 -298.586 2364
-50.4174 -298.451 2363
-45.6995 -298.316 2362
-41.0206 -298.435 2363
-36.338 -298.555 2364
-31.6517 -298.676 2365
-26.9731 -298.924 2367
-22.2868 -299.172 2369
-17.5705 -299.043 2368
-12.8691 -299.167 2369
-8.17068 -299.544 2372
-3.46041 -299.922 2375
1.26283 -300.553 2380
6.00581 -301.185 2385
10.7644 -301.691 2389
15.5259 -301.946 2391
20.2955 -302.202 2393
25.1359 -303.216 2401
29.9586 -303.726 2405
34.8841 -304.994 2415
39.7511 -305.505 2419
44.7263 -306.649 2428
-251.216 -303.674 2435
-245.113 -302.137 2423
-239.159 -300.725 2412
-233.64 -299.814 2405
-227.96 -298.654 2396
-222.132 -297.246 2385
-216.897 -296.586 2380
-211.951 -296.302 2378
-207.276 -296.392 2379
-202.087 -295.735 2374
-197.503 -295.951 2376
-192.262 -295.172 2370
-187.523 -295.141 2370
-182.322 -294.363 2364
-177.747 -294.583 2366
-172.8 -294.181 2363
-168.009 -294.028 2362
-163.292 -294.001 2362
-158.509 -293.85 2361
-153.862 -293.949 2362
-149.022 -293.675 2360
-144.253 -293.527 2359
-139.371 -293.13 2356
-134.902 -293.605 2360
-130.253 -293.708 2361
-125.547 -293.687 2361
-120.74 -293.418 2359
-116.139 -293.647 2361
-111.106 -292.758 2354
-106.418 -292.741 2354
-101.86 -293.097 2357
-97.1267 -292.956 2356
-92.5156 -293.189 2358
-87.8602 -293.299 2359
-83.2366 -293.533 2361
-78.5725 -293.645 2362
-73.9362 -293.881 2364
-69.2048 -293.745 2363
-64.5871 -294.107 2366
-59.8567 -293.972 2365
-55.1307 -293.839 2364
-50.4305 -293.83 2364
-45.7113 -293.698 2363
-41.0312 -293.815 2364
-36.3474 -293.933 2365
-31.6599 -294.052 2366
-26.9802 -294.296 2368
-22.302 -294.664 2371
-17.5824 -294.537 2370
-12.8779 -294.659 2371
-8.17628 -295.03 2374
-3.46425 -295.526 2378
1.26139 -295.526 2378
6.00229 -296.272 2384
10.7581 -296.771 2388
15.5169 -297.022 2390
20.3005 -297.522 2394
25.1318 -298.395 2401
29.9413 -298.773 2404
34.8927 -300.269 2416
39.7938 -301.021 2422
44.7926 -302.271 2432
-251.278 -298.893 2436
-245.376 -297.626 2426
-239.417 -296.237 2415
-233.99 -295.462 2409
-228.494 -294.567 2402
-222.562 -293.059 2390
-217.226 -292.287 2384
-212.273 -292.007 2382
-207.59 -292.096 2383
-202.14 -291.082 2375
-197.637 -291.417 2378
-192.556 -290.896 2374
-187.809 -290.865 2374
-182.523 -289.977 2367
-177.793 -289.948 2367
-172.772 -289.43 2363
-167.981 -289.28 2362
-163.265 -289.253 2362
-158.416 -288.983 2360
-153.641 -288.835 2359
-148.935 -288.811 2359
-144.108 -288.542 2357
-139.467 -288.642 2358
-134.88 -288.864 2360
-130.287 -289.088 2362
-125.633 -289.19 2363
-120.925 -289.17 2363
-116.071 -288.783 2360
-111.276 -288.52 2358
-106.626 -288.625 2359
-101.887 -288.486 2358
-97.3171 -288.837 2361
-92.6968 -289.067 2363
-87.9949 -289.052 2363
-83.3288 -289.161 2364
-78.593 -289.025 2363
-73.9556 -289.258 2365
-69.2229 -289.124 2364
-64.5765 -289.358 2366
-59.8216 -289.103 2364
-55.0985 -288.972 2363
-50.3797 -288.841 2362
-45.6846 -288.833 2362
-41.0072 -288.948 2363
-36.3415 -289.187 2365
-31.6415 -289.181 2365
-26.9758 -289.544 2368
-22.289 -289.784 2370
-17.5945 -290.026 2372
-12.8866 -290.146 2373
-8.18191 -290.511 2376
-3.46228 -290.632 2377
1.26433 -291.488 2384
6.00885 -291.855 2387
10.7788 -292.59 2393
15.5467 -292.837 2395
20.3312 -293.207 2398
25.1172 -293.455 2400
29.9488 -294.071 2405
34.9016 -295.543 2417
39.8365 -296.527 2425
44.73 -297.023 2429
-250.619 -293.265 2430
-245.236 -292.622 2425
-239.379 -291.377 2415
-234.147 -290.857 2411
-228.552 -289.855 2403
-222.898 -288.733 2394
-217.464 -287.854 2387
-212.238 -287.217 2382
-207.644 -287.424 2384
-202.362 -286.669 2378
-197.688 -286.757 2379
-192.606 -286.244 2375
-188.016 -286.455 2377
-182.802 -285.702 2371
-178.14 -285.794 2372
-172.963 -285.043 2366
-168.168 -284.896 2365
-163.377 -284.749 2364
-158.659 -284.724 2364
-153.747 -284.338 2361
-149.101 -284.434 2362
-144.207 -284.049 2359
-139.385 -283.786 2357
-134.687 -283.764 2357
-129.99 -283.743 2357
-125.4 -283.964 2359
-120.752 -284.065 2360
-115.954 -283.805 2358
-111.306 -283.908 2359
-106.519 -283.65 2357
-101.827 -283.633 2357
-97.2604 -283.979 2360
-92.6036 -284.084 2361
-87.8691 -283.949 2360
-83.2803 -284.297 2363
-78.5472 -284.164 2362
-73.8187 -284.031 2361
-69.1533 -284.14 2362
-64.5117 -284.37 2364
-59.7615 -284.12 2362
-55.0664 -284.111 2362
-50.3504 -283.982 2361
-45.716 -284.336 2364
-41.018 -284.329 2364
-36.3512 -284.563 2366
-31.6498 -284.558 2366
-26.9942 -285.034 2370
-22.2949 -285.151 2371
-17.5916 -285.268 2372
-12.8901 -285.506 2374
