ply
format ascii 1.0
element vertex 2070
property float x
property float y
property float z
end_header
762.232 -406.496 6462
776.218 -407.066 6470
790.122 -407.573 6477
804.556 -408.334 6488
818.663 -408.907 6496
831.912 -409.04 6497
844.652 -408.923 6494
858.048 -409.122 6496
868.911 -408.125 6479
881.073 -407.76 6472
1294.34 -420.08 6624
1306.64 -419.749 6617
1319.93 -419.736 6615
1334.02 -419.979 6617
1347.92 -420.159 6618
1363.08 -420.721 6625
1378.07 -421.221 6631
1392.68 -421.596 6635
1405.19 -421.336 6629
1421.12 -422.095 6639
1432.13 -421.393 6626
1445.94 -421.518 6626
1460.63 -421.9 6630
1475.59 -422.346 6635
1488.32 -422.157 6630
1503.32 -422.606 6635
1517.21 -422.738 6635
1530.42 -422.68 6632
1542.69 -422.368 6625
1554.95 -422.058 6618
1567.2 -421.748 6611
1581.34 -421.95 6612
1715.64 -425.364 6645
-319.935 -143.712 2356
-315.3 -143.747 2357
-310.137 -143.538 2354
-305.118 -143.391 2352
-299.726 -143.061 2347
-294.86 -142.975 2346
-289.63 -142.707 2342
-284.54 -142.5 2339
-279.105 -142.112 2333
-273.814 -141.784 2328
-268.777 -141.579 2325
-263.868 -141.435 2323
-258.969 -141.292 2321
-254.081 -141.149 2319
-249.632 -141.249 2321
-244.65 -141.046 2318
-239.786 -140.905 2316
-235.337 -141.007 2318
-230.883 -141.109 2320
-226.325 -141.151 2321
-221.573 -141.072 2320
-216.922 -141.054 2320
-212.18 -140.975 2319
-207.354 -140.836 2317
-202.714 -140.819 2317
-198.075 -140.803 2317
-193.437 -140.786 2317
-188.883 -140.831 2318
-184.246 -140.816 2318
-179.921 -141.044 2322
-175.431 -141.151 2324
-171.008 -141.319 2327
-166.359 -141.305 2327
-161.92 -141.473 2330
-157.133 -141.339 2328
-152.945 -141.751 2335
-148.223 -141.678 2334
-143.936 -142.03 2340
-139.804 -142.564 2349
-135.466 -142.917 2355
-130.993 -143.149 2359
-126.452 -143.32 2362
-122.158 -143.796 2370
-117.635 -144.028 2374
-113.192 -144.383 2380
-108.635 -144.616 2384
-104.324 -145.214 2394
-99.7667 -145.509 2399
-95.2295 -145.865 2405
179.316 -388.483 6407
191.937 -388.256 6403
204.608 -388.151 6401
217.239 -387.986 6398
230.29 -388.551 6407
242.924 -388.388 6404
255.987 -388.894 6412
269.126 -389.461 6421
282.084 -389.726 6425
295.198 -390.175 6432
308.293 -390.563 6438
320.917 -390.346 6434
333.89 -390.555 6437
346.716 -390.583 6437
359.043 -390.066 6428
371.914 -390.157 6429
385.213 -390.674 6437
397.618 -390.281 6430
410.445 -390.314 6430
423.013 -390.106 6426
435.568 -389.898 6422
448.878 -390.359 6429
462.077 -390.701 6434
475.225 -390.982 6438
489.303 -391.993 6454
502.982 -392.641 6464
515.348 -392.258 6457
528.263 -392.301 6457
541.686 -392.71 6463
554.279 -392.512 6459
567.299 -392.619 6460
580.148 -392.606 6459
593.274 -392.776 6461
606.6 -393.068 6465
620.33 -393.605 6473
633.315 -393.657 6473
646.305 -393.71 6473
659.707 -394.007 6477
672.404 -393.88 6474
684.99 -393.693 6470
697.995 -393.75 6470
711.116 -393.869 6471
723.8 -393.745 6468
735.68 -393.197 6458
749.265 -393.563 6463
761.46 -393.199 6456
776.033 -394.055 6469
789.689 -394.424 6474
804.116 -395.16 6485
817.711 -395.471 6489
831.714 -395.966 6496
843.931 -395.609 6489
857.447 -395.862 6492
868.569 -395.019 6477
881.406 -394.97 6475
1295.21 -407.023 6629
1306.73 -406.456 6618
1321.81 -406.997 6625
1336.32 -407.354 6629
1350.86 -407.713 6633
1364.61 -407.827 6633
1380.65 -408.62 6644
1392.35 -408.121 6634
1405.5 -408.054 6631
1421 -408.666 6639
1433.52 -408.417 6633
1445.81 -408.107 6626
1462.27 -408.969 6638
1476.35 -409.155 6639
1489.77 -409.157 6637
1503.42 -409.222 6636
1517.99 -409.535 6639
1531.21 -409.479 6636
1544.42 -409.424 6633
1555.76 -408.877 6622
1569.2 -408.885 6620
1582.88 -408.958 6619
-324.266 -138.84 2353
-320.723 -139.345 2362
-316.344 -139.497 2365
-310.638 -139.058 2358
-305.482 -138.857 2355
-299.83 -138.42 2348
-294.836 -138.278 2346
-289.483 -137.96 2341
-284.152 -137.642 2336
-278.723 -137.266 2330
-273.439 -136.95 2325
-268.409 -136.751 2322
-263.733 -136.73 2322
-259.06 -136.709 2322
-254.17 -136.571 2320
-249.504 -136.55 2320
-244.736 -136.472 2319
-239.87 -136.335 2317
-235.217 -136.316 2317
-230.765 -136.415 2319
-225.916 -136.279 2317
-221.46 -136.379 2319
-216.81 -136.361 2319
-212.163 -136.344 2319
-207.427 -136.268 2318
-202.785 -136.252 2318
-198.058 -136.177 2317
-193.421 -136.161 2317
-188.949 -136.264 2319
-184.549 -136.425 2322
-180.139 -136.587 2325
-175.568 -136.631 2326
-171.288 -136.911 2331
-166.489 -136.78 2329
-161.977 -136.885 2331
-157.323 -136.872 2331
-152.802 -136.977 2333
-148.401 -137.2 2337
-144.293 -137.716 2346
-139.972 -138.057 2352
-135.627 -138.398 2358
-131.26 -138.74 2364
-126.603 -138.788 2365
-122.148 -139.072 2370
-117.675 -139.356 2375
-113.135 -139.581 2379
-108.626 -139.866 2384
-104.142 -140.209 2390
-99.4259 -140.26 2391
-94.7467 -140.369 2393
179.525 -376.191 6415
192.131 -375.912 6410
204.975 -376.104 6413
217.628 -375.945 6410
230.523 -376.197 6414
243.284 -376.216 6414
256.446 -376.822 6424
269.356 -377.019 6427
282.149 -377.041 6427
295.082 -377.24 6430
308.029 -377.44 6433
320.841 -377.465 6433
333.811 -377.667 6436
346.527 -377.576 6434
359.237 -377.487 6432
371.942 -377.399 6430
385.182 -377.84 6437
397.771 -377.636 6433
410.604 -377.668 6433
423.241 -377.525 6430
436.21 -377.677 6432
449.191 -377.829 6434
462.111 -377.924 6435
475.556 -378.432 6443
489.567 -379.351 6458
503.175 -379.919 6467
515.466 -379.49 6459
529.039 -380.002 6467
542.061 -380.103 6468
554.663 -379.912 6464
567.341 -379.78 6461
580.999 -380.296 6469
593.868 -380.284 6468
607.395 -380.685 6474
620.854 -381.028 6479
634.144 -381.255 6482
646.252 -380.776 6473
659.858 -381.182 6479
671.831 -380.646 6469
684.298 -380.406 6464
697.399 -380.52 6465
710.839 -380.812 6469
723.07 -380.457 6462
736.076 -380.516 6462
748.972 -380.516 6461
761.281 -380.223 6455
776.21 -381.227 6471
789.869 -381.584 6476
803.802 -382.061 6483
818.4 -382.833 6495
831.902 -383.076 6498
844.512 -382.908 6494
857.377 -382.858 6492
869.302 -382.396 6483
882.424 -382.466 6483
1241.94 -393.714 6637
1268.9 -393.799 6635
1281.03 -393.428 6627
1294.13 -393.354 6624
1305.63 -392.806 6613
1319.31 -392.913 6613
1333.19 -393.08 6614
1347.7 -393.427 6618
1361.82 -393.656 6620
1378.26 -394.541 6633
1390.34 -394.178 6625
1403.26 -394.053 6621
1418.74 -394.645 6629
1431.46 -394.463 6624
1444.16 -394.283 6619
1460.17 -394.997 6629
1474.22 -395.177 6630
1488.07 -395.298 6630
1502.16 -395.48 6631
1516.49 -395.723 6633
1529.93 -395.728 6631
1544.29 -395.973 6633
1556.1 -395.563 6624
1568.35 -395.273 6617
1580.59 -394.984 6610
1699.2 -397.679 6637
1713.28 -397.82 6637
-325.481 -134.638 2362
-321.513 -134.955 2368
-316.587 -134.873 2367
-310.614 -134.336 2358
-305.198 -134.028 2353
-299.423 -133.549 2345
-294.31 -133.355 2342
-289.089 -133.104 2338
-284.129 -132.968 2336
-278.462 -132.491 2328
-273.418 -132.299 2325
-268.272 -132.05 2321
-263.712 -132.087 2322
-259.039 -132.066 2322
-254.15 -131.933 2320
-249.377 -131.857 2319
-244.4 -131.667 2316
-239.747 -131.648 2316
-235.198 -131.687 2317
-230.746 -131.782 2319
-225.996 -131.708 2318
-221.538 -131.804 2320
-216.98 -131.844 2321
-212.237 -131.771 2320
-207.59 -131.754 2320
-202.856 -131.682 2319
-198.128 -131.61 2318
-193.406 -131.538 2317
-189.016 -131.693 2320
-184.455 -131.736 2321
-180.203 -132.005 2326
-175.705 -132.105 2328
-171.274 -132.262 2331
-166.618 -132.249 2331
-162.172 -132.406 2334
-157.581 -132.451 2335
-153.052 -132.552 2337
-148.58 -132.711 2340
-144.589 -133.323 2351
-140.02 -133.426 2353
-135.732 -133.812 2360
-131.139 -133.915 2362
-126.807 -134.302 2369
-122.139 -134.349 2370
-117.716 -134.68 2376
-113.174 -134.898 2380
-108.663 -135.173 2385
-104.177 -135.505 2391
-99.4181 -135.497 2391
-94.7392 -135.603 2393
179.539 -363.472 6416
192.356 -363.6 6418
205.31 -363.955 6424
218.052 -363.915 6423
230.936 -364.102 6426
243.682 -364.063 6425
256.386 -363.969 6423
269.209 -364.046 6424
281.995 -364.067 6424
294.921 -364.26 6427
307.814 -364.396 6429
321.015 -364.873 6437
333.837 -364.899 6437
346.554 -364.812 6435
359.265 -364.725 6433
372.145 -364.81 6434
385.151 -365.009 6437
397.988 -365.039 6437
411.082 -365.297 6441
423.998 -365.386 6442
436.855 -365.419 6442
449.854 -365.566 6444
462.505 -365.431 6441
476.256 -366.148 6453
489.983 -366.809 6464
503.291 -367.132 6469
515.586 -366.717 6461
529.079 -367.154 6468
541.18 -366.628 6458
554.19 -366.727 6459
567.297 -366.883 6461
581.043 -367.439 6470
594.097 -367.541 6471
607.629 -367.928 6477
620.71 -368.032 6478
634.192 -368.365 6483
646.501 -368.016 6476
659.297 -367.953 6474
671.259 -367.436 6464
684.245 -367.488 6464
697.344 -367.598 6465
710.673 -367.823 6468
723.572 -367.822 6467
737.27 -368.22 6473
749.84 -368.049 6469
762.046 -367.709 6462
776.508 -368.452 6474
790.05 -368.74 6478
803.243 -368.859 6479
817.58 -369.491 6489
831.068 -369.725 6492
844.185 -369.79 6492
857.706 -370.027 6495
869.368 -369.467 6484
883.171 -369.82 6489
1241.47 -380.229 6635
1256.64 -380.785 6643
1268.22 -380.254 6632
1294.41 -380.11 6626
1306.52 -379.753 6618
1319.8 -379.742 6616
1335.1 -380.305 6624
1348.61 -380.353 6623
1363.15 -380.689 6627
1378.77 -381.314 6636
1391.7 -381.193 6632
1405.06 -381.189 6630
1419.91 -381.587 6635
1432.21 -381.297 6628
1445.58 -381.295 6626
1460.93 -381.813 6633
1474.77 -381.929 6633
1489.75 -382.334 6638
1502.95 -382.279 6635
1517.51 -382.572 6638
1531.19 -382.635 6637
1544.63 -382.641 6635
1556.68 -382.302 6627
1570.36 -382.369 6626
1582.62 -382.089 6619
1688.55 -384.849 6651
1700.85 -384.578 6644
1713.66 -384.425 6639
1725.16 -383.983 6629
-326.834 -130.457 2372
-322.167 -130.487 2373
-316.83 -130.243 2369
-310.722 -129.67 2359
-305.175 -129.317 2353
-299.272 -128.8 2344
-294.288 -128.668 2342
-288.943 -128.371 2337
-283.499 -128.02 2331
-278.202 -127.725 2326
-272.927 -127.43 2321
-268.252 -127.41 2321
-263.352 -127.28 2319
-258.797 -127.315 2320
-254.13 -127.296 2320
-249.466 -127.277 2320
-244.382 -127.039 2316
-239.626 -126.967 2315
-234.977 -126.949 2315
-230.729 -127.151 2319
-225.686 -126.915 2315
-221.33 -127.062 2318
-216.87 -127.156 2320
-212.221 -127.14 2320
-207.395 -127.014 2318
-202.578 -126.89 2316
-198.028 -126.929 2317
-193.308 -126.86 2316
-188.92 -127.01 2319
-184.521 -127.161 2322
-180.189 -127.366 2326
-175.767 -127.517 2329
-171.188 -127.559 2330
-166.749 -127.711 2333
-162.299 -127.863 2336
-157.771 -127.96 2338
-153.237 -128.058 2340
-148.95 -128.375 2346
-144.517 -128.583 2350
-140.188 -128.901 2356
-136.009 -129.383 2365
-131.351 -129.428 2366
-127.012 -129.801 2373
-122.387 -129.901 2375
-118.053 -130.33 2383
-113.451 -130.485 2386
-108.928 -130.75 2391
-104.256 -130.852 2393
-99.4522 -130.79 2392
-94.6529 -130.728 2391
179.61 -350.863 6419
192.372 -350.876 6419
205.391 -351.329 6427
218.138 -351.289 6426
230.955 -351.361 6427
243.739 -351.378 6427
256.566 -351.452 6428
269.105 -351.143 6422
282.018 -351.327 6425
307.695 -351.48 6427
320.642 -351.668 6430
333.604 -351.856 6433
346.043 -351.498 6426
359.07 -351.743 6430
372.001 -351.88 6432
385.362 -352.4 6441
398.204 -352.429 6441
411.498 -352.842 6448
424.098 -352.654 6444
437.228 -352.905 6448
449.959 -352.828 6446
462.686 -352.753 6444
476.073 -353.171 6451
489.719 -353.754 6461
502.475 -353.682 6459
515.068 -353.5 6455
528.303 -353.758 6459
540.805 -353.524 6454
553.291 -353.29 6449
566.639 -353.606 6454
580.012 -353.923 6459
593.869 -354.514 6469
606.926 -354.614 6470
620.567 -355.043 6477
633.362 -354.98 6475
645.753 -354.699 6469
658.331 -354.528 6465
670.585 -354.194 6458
683.029 -353.97 6453
696.86 -354.46 6461
710.619 -354.896 6468
723.965 -355.114 6471
738.126 -355.718 6481
751.754 -356.048 6486
763.521 -355.5 6475
777.649 -356.052 6484
789.869 -355.726 6477
802.686 -355.676 6475
816.258 -355.956 6479
830.109 -356.347 6485
843.341 -356.465 6486
857.773 -357.078 6496
870.107 -356.812 6490
885.281 -357.703 6505
1102.67 -365.099 6619
1134.85 -366.922 6649
1242.31 -367.142 6640
1257.11 -367.568 6646
1268.89 -367.11 6636
1281.8 -366.986 6632
1295.68 -367.138 6633
1307.8 -366.794 6625
1320.89 -366.727 6622
1336.2 -367.271 6630
1363.87 -367.531 6631
1380.32 -368.356 6644
1393.48 -368.295 6641
1406.01 -368.069 6635
1419.16 -368.01 6632
1432.96 -368.118 6632
1444.37 -367.617 6621
1460.16 -368.227 6630
1474.43 -368.45 6632
1489.63 -368.896 6638
1502.6 -368.788 6634
1518.08 -369.292 6641
1530.61 -369.075 6635
1544.51 -369.192 6635
1556.32 -368.81 6626
1570.71 -369.041 6628
1582.26 -368.604 6618
1595.7 -368.615 6616
1609.64 -368.737 6616
1643 -370.213 6638
1687.91 -371.21 6649
1699.95 -370.894 6641
1711.2 -370.41 6630
-328.818 -124.669 2352
-326.258 -125.494 2368
-321.329 -125.417 2367
-316.539 -125.394 2367
-310.304 -124.789 2356
-304.375 -124.29 2347
-298.612 -123.845 2339
-293.513 -123.665 2336
-288.304 -123.432 2332
-283.114 -123.2 2328
-277.942 -122.968 2324
-273.142 -122.895 2323
-268.232 -122.77 2321
-263.559 -122.751 2321
-258.889 -122.732 2321
-253.893 -122.555 2318
-249.232 -122.537 2318
-244.258 -122.36 2315
-239.505 -122.29 2314
-234.859 -122.273 2314
-230.513 -122.415 2317
-225.767 -122.346 2316
-221.123 -122.33 2316
-216.855 -122.525 2320
-212.023 -122.404 2318
-207.38 -122.389 2318
-202.476 -122.216 2315
-197.928 -122.254 2316
-193.127 -122.135 2314
-188.987 -122.438 2320
-184.428 -122.477 2321
-180.098 -122.675 2325
-175.754 -122.873 2329
-171.322 -123.019 2332
-166.951 -123.218 2336
-162.357 -123.259 2337
-158.097 -123.564 2343
-153.488 -123.606 2344
-149.066 -123.806 2348
-144.629 -124.006 2352
-140.118 -124.154 2355
-135.827 -124.513 2362
-131.397 -124.767 2367
-127.163 -125.232 2376
-122.585 -125.382 2379
-118.342 -125.9 2389
-113.728 -126.05 2392
-109.239 -126.358 2398
-104.684 -126.614 2403
-99.9022 -126.606 2403
-94.9232 -126.336 2398
179.541 -337.981 6417
192.358 -338.099 6419
205.312 -338.43 6425
218.156 -338.55 6427
231.01 -338.671 6429
243.835 -338.741 6430
256.707 -338.864 6432
269.505 -338.883 6432
282.436 -339.06 6435
295.199 -339.028 6434
308.151 -339.208 6437
321.018 -339.283 6438
333.788 -339.254 6437
346.287 -338.962 6431
359.212 -339.092 6433
372.032 -339.118 6433
385.334 -339.567 6441
398.114 -339.542 6440
411.213 -339.782 6444
424.133 -339.865 6445
437.4 -340.212 6451
450.136 -340.138 6449
462.939 -340.118 6448
476.407 -340.574 6456
489.304 -340.608 6456
501.971 -340.485 6453
513.993 -339.941 6442
527.529 -340.401 6450
539.425 -339.805 6438
552.649 -340.056 6442
566.334 -340.571 6451
580.15 -341.14 6461
607.538 -342.07 6477
620.522 -342.114 6477
633.413 -342.106 6476
645.806 -341.835 6470
658.893 -341.934 6471
670.639 -341.348 6459
683.613 -341.396 6459
697.132 -341.71 6464
711.226 -342.29 6474
724.359 -342.394 6475
738.186 -342.817 6482
750.655 -342.606 6477
762.404 -342.078 6466
775.793 -342.292 6469
788.226 -342.084 6464
801.636 -342.3 6467
815.694 -342.781 6475
829.536 -343.158 6481
842.889 -343.324 6483
857.182 -343.862 6492
870.712 -344.084 6495
1088.74 -351.617 6617
1103.25 -352.015 6623
1119.32 -352.893 6638
1134.09 -353.347 6645
1146.13 -352.951 6636
1215.09 -353.646 6641
1229.85 -354.055 6647
1243.34 -354.091 6646
1257.02 -354.182 6646
1268.61 -353.688 6635
1280.93 -353.408 6628
1295 -353.608 6630
1307.7 -353.436 6625
1321.39 -353.532 6625
1337.92 -354.376 6639
1350.85 -354.261 6635
1364.59 -354.361 6635
1380.43 -354.995 6645
1393.59 -354.936 6642
1404.42 -354.29 6628
1417.98 -354.34 6627
1432.21 -354.551 6629
1444.7 -354.336 6623
1460.71 -354.977 6633
1476.1 -355.46 6640
1490.64 -355.729 6643
1503.17 -355.518 6637
1518.88 -356.058 6645
1531.41 -355.848 6639
1545.33 -355.961 6639
1558.55 -355.914 6636
1572.02 -355.923 6634
1583.81 -355.556 6625
1598.47 -355.834 6628
1610.24 -355.469 6619
1626.65 -356.126 6629
1644.85 -357.16 6646
1658.89 -357.282 6646
1671.69 -357.137 6641
1687.27 -357.584 6647
1699.57 -357.332 6640
1711.33 -356.974 6631
1725.41 -357.101 6631
-325.271 -120.395 2361
-320.763 -120.475 2363
-315.715 -120.35 2361
-309.492 -119.768 2350
-303.834 -119.39 2343
-298.336 -119.063 2337
-293.115 -118.839 2333
-287.665 -118.513 2327
-282.607 -118.341 2324
-277.564 -118.169 2321
-272.77 -118.099 2320
-268.329 -118.182 2322
-263.541 -118.113 2321
-258.648 -117.993 2319
-253.765 -117.873 2317
-249.107 -117.856 2317
-244.241 -117.737 2315
-239.591 -117.72 2315
-234.842 -117.653 2314
-230.397 -117.739 2316
-225.654 -117.672 2315
-221.299 -117.809 2318
-216.839 -117.896 2320
-212.099 -117.83 2319
-207.276 -117.714 2317
-202.462 -117.598 2315
-197.658 -117.483 2313
-193.197 -117.571 2315
-188.974 -117.812 2320
-184.494 -117.9 2322
-180.086 -118.04 2325
-175.742 -118.231 2329
-171.31 -118.371 2332
-166.939 -118.562 2336
-162.415 -118.653 2338
-158.221 -118.997 2345
-153.477 -118.935 2344
-149.055 -119.128 2348
-144.742 -119.422 2354
-140.227 -119.564 2357
-135.932 -119.91 2364
-131.61 -120.256 2371
-127.261 -120.602 2378
-122.782 -120.847 2383
-118.383 -121.194 2390
-113.815 -121.388 2394
-109.368 -121.736 2401
-104.851 -122.033 2407
-100.062 -122.026 2407
179.193 -324.602 6405
192.075 -324.868 6410
205.17 -325.439 6421
218.48 -326.265 6437
231.353 -326.382 6439
244.273 -326.55 6442
256.928 -326.365 6438
269.653 -326.281 6436
282.197 -325.996 6430
294.857 -325.864 6427
307.794 -326.036 6430
320.845 -326.312 6435
333.557 -326.232 6433
346.37 -326.256 6433
359.466 -326.534 6438
372.353 -326.61 6439
385.306 -326.737 6441
398.642 -327.17 6449
411.63 -327.299 6451
424.498 -327.328 6451
437.302 -327.307 6450
450.314 -327.438 6452
462.764 -327.166 6446
476.079 -327.503 6452
488.891 -327.485 6451
502.014 -327.671 6454
514.117 -327.198 6444
527.573 -327.59 6451
539.638 -327.119 6441
553.297 -327.613 6450
566.558 -327.855 6454
580.737 -328.606 6468
593.692 -328.646 6468
607.308 -329.043 6475
620.096 -328.984 6473
633.173 -329.078 6474
645.162 -328.614 6464
658.542 -328.862 6468
670.488 -328.4 6458
683.671 -328.548 6460
696.975 -328.748 6463
710.957 -329.255 6472
723.973 -329.304 6472
737.678 -329.66 6478
749.908 -329.355 6471
762.468 -329.204 6467
775.499 -329.257 6467
787.926 -329.057 6462
801.455 -329.315 6466
815.889 -329.932 6477
828.966 -329.989 6477
842.439 -330.199 6480
856.725 -330.717 6489
870.517 -331.032 6494
1089.32 -338.536 6621
1103.51 -338.817 6625
1118.9 -339.457 6636
1133.15 -339.74 6640
1146.57 -339.768 6639
1185.23 -339.398 6627
1216.29 -340.642 6648
1229.58 -340.625 6646
1243.06 -340.66 6645
1256.17 -340.594 6642
1267.94 -340.17 6632
1281.03 -340.105 6629
1295.49 -340.401 6633
1308 -340.184 6627
1321.3 -340.174 6625
1337.42 -340.883 6637
1349.73 -340.618 6630
1364.7 -341.022 6636
1379.91 -341.478 6643
1394.75 -341.833 6648
1405.38 -341.16 6633
1419.38 -341.311 6634
1433.4 -341.463 6635
1447 -341.513 6634
1461.48 -341.77 6637
1477.33 -342.338 6646
1491.43 -342.494 6647
1503.97 -342.29 6641
1518.09 -342.449 6642
1529.23 -341.938 6630
1542.89 -341.995 6629
1557.03 -342.156 6630
1570.24 -342.112 6627
1582.98 -341.966 6622
1599.08 -342.543 6631
1609.4 -341.882 6616
1625.31 -342.41 6624
1643 -343.302 6639
1658.77 -343.781 6646
1670.81 -343.486 6638
1687.91 -344.227 6650
1700.21 -343.985 6643
1713.27 -343.899 6639
1727.63 -344.074 6640
1742.53 -344.353 6643
-328.633 -115.2 2351
-325.938 -115.913 2366
-320.741 -115.745 2363
-315.158 -115.43 2357
-308.812 -114.821 2345
-303.165 -114.458 2338
-297.677 -114.144 2332
-292.844 -114.076 2331
-287.646 -113.861 2327
-282.588 -113.695 2324
-277.784 -113.627 2323
-273.221 -113.658 2324
-268.079 -113.444 2320
-263.523 -113.476 2321
-258.63 -113.36 2319
-253.857 -113.294 2318
-249.09 -113.229 2317
-244.119 -113.066 2314
-239.264 -112.952 2312
-234.826 -113.034 2314
-230.282 -113.067 2315
-225.639 -113.052 2315
-221.283 -113.184 2318
-216.918 -113.316 2321
-212.085 -113.204 2319
-207.262 -113.093 2317
-202.448 -112.981 2315
-197.815 -112.968 2315
-193.1 -112.906 2314
-188.635 -112.991 2316
-184.482 -113.272 2322
-179.996 -113.357 2324
-175.73 -113.589 2329
-171.078 -113.578 2329
-166.857 -113.859 2335
-162.404 -113.994 2338
-158.075 -114.228 2343
-153.467 -114.266 2344
-149.045 -114.451 2348
-144.671 -114.685 2353
-140.218 -114.871 2357
-135.865 -115.154 2363
-131.545 -115.486 2370
-127.199 -115.819 2377
-122.774 -116.103 2383
-118.573 -116.63 2394
-113.902 -116.72 2396
-109.406 -117.005 2402
-104.975 -117.388 2410
-100.263 -117.478 2412
179.405 -312.248 6413
192.272 -312.455 6417
205.284 -312.858 6425
218.534 -313.554 6439
231.553 -313.86 6445
244.636 -314.217 6452
257.23 -313.941 6446
269.761 -313.618 6439
282.222 -313.246 6431
294.837 -313.07 6427
307.726 -313.188 6429
320.575 -313.257 6430
333.638 -313.522 6435
346.616 -313.691 6438
372.906 -314.274 6449
386.178 -314.641 6456
399.11 -314.715 6457
411.858 -314.645 6455
424.535 -314.526 6452
437.272 -314.457 6450
450.493 -314.73 6455
463.092 -314.565 6451
476.416 -314.889 6457
489.388 -314.969 6458
502.602 -315.197 6462
514.401 -314.548 6448
527.783 -314.875 6454
539.853 -314.422 6444
553.26 -314.752 6450
566.344 -314.886 6452
580.428 -315.558 6465
593.468 -315.646 6466
607.267 -316.125 6475
619.958 -316.019 6472
633.032 -316.11 6473
645.617 -315.957 6469
658.497 -315.951 6468
670.858 -315.702 6462
684.154 -315.894 6465
697.683 -316.184 6470
711.128 -316.426 6474
725.042 -316.865 6482
738.425 -317.06 6485
750.899 -316.865 6480
763.242 -316.622 6474
776.285 -316.673 6474
788.848 -316.529 6470
802.64 -316.875 6476
816.337 -317.174 6481
828.782 -316.984 6476
842.383 -317.236 6480
855.875 -317.439 6483
869.385 -317.643 6486
1105.1 -326.006 6635
1118.82 -326.13 6636
1133.07 -326.402 6640
1147.35 -326.674 6644
1186.23 -326.368 6633
1201.28 -326.842 6641
1215.65 -327.12 6645
1229.12 -327.153 6644
1243.16 -327.335 6646
1255.52 -327.074 6639
1267.47 -326.716 6630
1281.72 -326.949 6633
1296.77 -327.381 6640
1310.08 -327.37 6638
1323.8 -327.459 6638
1352.69 -327.985 6645
1366.66 -328.127 6646
1382.1 -328.614 6654
1396.54 -328.856 6657
1407.19 -328.21 6642
1421.21 -328.355 6643
1435.46 -328.551 6645
1448.42 -328.451 6641
1463.59 -328.846 6647
1478.78 -329.243 6653
1492.45 -329.294 6652
1504.99 -329.099 6646
1518.9 -329.202 6646
1530.51 -328.81 6636
1544.65 -328.964 6637
1559.04 -329.169 6639
1572.74 -329.226 6638
1584.78 -328.936 6630
1600.42 -329.392 6637
1611.48 -328.906 6625
1626.42 -329.215 6629
1643.13 -329.873 6640
1660.65 -330.681 6654
1673.21 -330.497 6648
1690.33 -331.209 6660
1701.88 -330.827 6650
1716.51 -331.044 6652
1743.72 -331.082 6648
-325.641 -111.083 2364
-320.041 -110.781 2358
-314.603 -110.526 2353
-308.265 -109.942 2341
-302.757 -109.641 2335
-297.402 -109.387 2330
-292.322 -109.227 2327
-287.256 -109.068 2324
-282.57 -109.05 2324
-277.766 -108.985 2323
-272.969 -108.921 2322
-268.177 -108.856 2321
-263.052 -108.652 2317
-258.279 -108.588 2316
-253.512 -108.525 2315
-248.859 -108.509 2315
-243.892 -108.353 2312
-239.042 -108.244 2310
-234.608 -108.322 2312
-229.77 -108.214 2310
-225.332 -108.293 2312
-221.078 -108.466 2316
-216.904 -108.686 2321
-211.98 -108.532 2318
-207.069 -108.378 2315
-202.435 -108.365 2315
-197.802 -108.353 2315
-192.921 -108.2 2312
-188.705 -108.422 2317
-184.629 -108.737 2324
-180.139 -108.819 2326
-175.945 -109.089 2332
-171.214 -109.031 2331
-166.917 -109.254 2336
-162.393 -109.337 2338
-157.998 -109.514 2342
-153.391 -109.551 2343
-149.226 -109.915 2351
-144.723 -110.046 2354
-140.328 -110.271 2359
-135.914 -110.496 2364
-131.703 -110.908 2373
-127.351 -111.227 2380
-122.972 -111.546 2387
-118.714 -112.006 2397
-114.228 -112.279 2403
-109.582 -112.412 2406
-105.142 -112.779 2414
-100.422 -112.866 2416
179.504 -299.678 6417
192.289 -299.736 6418
205.335 -300.169 6427
218.316 -300.463 6433
231.43 -300.897 6442
244.355 -301.052 6445
257.174 -301.069 6445
269.744 -300.805 6439
282.116 -300.355 6429
294.589 -300.046 6422
307.515 -300.206 6425
320.255 -300.178 6424
333.305 -300.433 6429
346.648 -300.922 6439
360.032 -301.411 6449
372.997 -301.528 6451
385.914 -301.599 6452
398.837 -301.67 6453
411.385 -301.462 6448
423.784 -301.161 6441
436.43 -301.048 6438
449.906 -301.497 6447
462.774 -301.526 6447
476.016 -301.79 6452
488.751 -301.727 6450
502.181 -302.086 6457
513.969 -301.463 6443
527.177 -301.683 6447
539.734 -301.53 6443
553.138 -301.845 6449
565.781 -301.74 6446
580.122 -302.526 6462
592.604 -302.329 6457
605.915 -302.554 6461
618.96 -302.64 6462
632.6 -303.008 6469
644.977 -302.767 6463
658.149 -302.902 6465
670.608 -302.71 6460
683.792 -302.847 6462
696.991 -302.984 6464
711.082 -303.498 6474
724.548 -303.731 6478
738.491 -304.153 6486
750.85 -303.919 6480
763.31 -303.733 6475
775.876 -303.594 6471
788.553 -303.503 6468
802.464 -303.882 6475
816.788 -304.403 6485
829.495 -304.315 6482
842.978 -304.509 6485
856.611 -304.751 6489
870.535 -305.088 6495
1078.91 -312.829 6641
1092.3 -312.851 6640
1106.86 -313.204 6646
1119.76 -313.087 6642
1134.37 -313.443 6648
1148.48 -313.658 6651
1161.05 -313.449 6645
1173.96 -313.335 6641
1188.11 -313.553 6644
1201.75 -313.63 6644
1215.76 -313.802 6646
1228.86 -313.739 6643
1242.71 -313.866 6644
1255.24 -313.663 6638
1268.15 -313.556 6634
1283.57 -314.064 6643
1298.05 -314.336 6647
1311.58 -314.373 6646
1325.71 -314.553 6648
1351.99 -314.443 6642
1367.19 -314.862 6649
1382.43 -315.283 6656
1397.08 -315.562 6660
1407.73 -314.942 6645
1422.4 -315.224 6649
1435.15 -315.079 6644
1448.33 -315.031 6641
1462.61 -315.22 6643
1478.69 -315.79 6653
1491.9 -315.745 6650
1506.03 -315.89 6651
1518.57 -315.704 6645
1530.17 -315.328 6635
1544.31 -315.475 6636
1559.64 -315.862 6642
1571.45 -315.536 6633
1585.63 -315.687 6634
1600.55 -315.981 6638
1611.85 -315.562 6627
1625.82 -315.668 6627
1642.28 -316.252 6637
1659.05 -316.884 6648
1672.09 -316.802 6644
1687.68 -317.199 6650
1699.72 -316.928 6642
-319.479 -105.883 2354
-314.182 -105.684 2350
-308.114 -105.215 2340
-302.478 -104.882 2333
-297.129 -104.638 2328
-291.927 -104.441 2324
-287.362 -104.468 2325
-282.431 -104.361 2323
-277.51 -104.254 2321
-272.716 -104.192 2320
-267.929 -104.13 2319
-262.922 -103.98 2316
-258.151 -103.919 2315
-253.606 -103.948 2316
-248.844 -103.888 2315
-244.088 -103.828 2314
-239.234 -103.724 2312
-234.492 -103.664 2311
-230.054 -103.74 2313
-225.61 -103.816 2315
-221.16 -103.892 2317
-216.704 -103.968 2319
-212.058 -103.955 2319
-207.057 -103.763 2315
-202.423 -103.75 2315
-197.619 -103.648 2313
-193.243 -103.771 2316
-188.856 -103.894 2319
-184.458 -104.017 2322
-179.973 -104.095 2324
-176.01 -104.488 2333
-171.35 -104.477 2333
-166.907 -104.601 2336
-162.105 -104.502 2334
-158.055 -104.895 2343
-153.513 -104.975 2345
-149.09 -105.145 2349
-144.714 -105.36 2354
-140.319 -105.575 2359
-135.848 -105.745 2363
-131.695 -106.185 2373
-127.236 -106.401 2378
-122.913 -106.751 2386
-118.558 -107.101 2394
-114.03 -107.318 2399
-109.393 -107.446 2402
-105.092 -107.931 2413
179.437 -286.826 6415
192.247 -286.927 6417
205.386 -287.475 6429
218.404 -287.801 6436
231.452 -288.128 6443
244.492 -288.41 6449
257.398 -288.515 6451
270.104 -288.397 6448
282.493 -287.966 6438
294.891 -287.581 6429
307.687 -287.599 6429
320.584 -287.708 6431
333.544 -287.862 6434
346.626 -288.106 6439
360.234 -288.754 6453
373.032 -288.732 6452
385.59 -288.53 6447
398.565 -288.644 6449
411.55 -288.758 6451
424.087 -288.56 6446
436.606 -288.362 6441
450.157 -288.836 6451
462.889 -288.774 6449
475.839 -288.848 6450
488.493 -288.743 6447
501.916 -289.086 6454
513.937 -288.624 6443
527.308 -288.925 6449
540.12 -288.912 6448
553.533 -289.214 6454
566.624 -289.338 6456
580.893 -290.045 6471
593.026 -289.677 6462
605.877 -289.669 6461
619.208 -289.885 6465
632.658 -290.148 6470
645.236 -290.007 6466
658.719 -290.271 6471
671.812 -290.357 6472
684.596 -290.308 6470
697.81 -290.44 6472
711.147 -290.618 6475
724.279 -290.706 6476
737.762 -290.93 6480
749.761 -290.571 6471
762.319 -290.438 6467
775.587 -290.575 6469
788.869 -290.712 6471
802.662 -291.03 6477
816.989 -291.529 6487
829.571 -291.4 6483
843.055 -291.586 6486
856.821 -291.862 6491
870.883 -292.23 6498
883.756 -292.193 6496
1079.5 -299.686 6645
1093.05 -299.753 6645
1106.95 -299.911 6647
1118.85 -299.528 6637
1132.25 -299.552 6636
1146.86 -299.893 6642
1159.76 -299.783 6638
1173.18 -299.81 6637
1188.93 -300.425 6649
1203.12 -300.634 6652
1216.78 -300.709 6652
1230.63 -300.83 6653
1244.12 -300.861 6652
1256.87 -300.712 6647
1270.75 -300.835 6648
1285.42 -301.141 6653
1299.53 -301.311 6655
1313.07 -301.346 6654
1326.62 -301.383 6653
1340.78 -301.556 6655
1352.31 -301.141 6644
1367.1 -301.452 6649
1382.13 -301.81 6655
1396.36 -301.987 6657
1408.91 -301.801 6651
1423.59 -302.071 6655
1436.57 -301.978 6651
1450.63 -302.113 6652
1464.72 -302.249 6653
1479.93 -302.613 6659
1492.26 -302.388 6652
1505.48 -302.345 6649
1518.47 -302.257 6645
1531.46 -302.171 6641
1545.14 -302.221 6640
1561.65 -302.819 6651
1574.67 -302.734 6647
1587.68 -302.651 6643
1601.17 -302.66 6641
1614.43 -302.624 6638
1627.19 -302.497 6633
1641.43 -302.645 6634
1659.19 -303.433 6649
1673.5 -303.583 6650
1688.33 -303.826 6653
-324.775 -101.365 2358
-319.324 -101.131 2353
-313.762 -100.854 2347
-307.832 -100.45 2338
-302.071 -100.088 2330
-296.856 -99.8988 2326
-291.784 -99.7527 2323
-287.098 -99.7358 2323
-282.049 -99.5905 2320
-277.732 -99.7028 2323
-272.465 -99.4721 2318
-267.682 -99.4136 2317
-262.679 -99.2694 2314
-258.024 -99.2541 2314
-253.372 -99.2393 2314
-248.721 -99.2246 2314
-244.073 -99.2103 2314
-239.116 -99.0675 2311
-234.478 -99.0537 2311
-230.04 -99.1259 2313
-225.597 -99.1985 2315
-221.242 -99.314 2318
-216.597 -99.3012 2318
-211.954 -99.2887 2318
-207.223 -99.2336 2317
-202.41 -99.1361 2315
-197.778 -99.1244 2315
-193.231 -99.1559 2316
-188.845 -99.2733 2319
-184.448 -99.3907 2322
-180.117 -99.5514 2326
-175.924 -99.7978 2332
-171.487 -99.9161 2335
-166.825 -99.9063 2335
-162.165 -99.8967 2335
-158.181 -100.315 2345
-153.7 -100.434 2348
-149.271 -100.597 2352
-144.951 -100.845 2358
-140.608 -101.093 2364
-135.955 -101.128 2365
-131.743 -101.505 2374
-127.282 -101.711 2379
-122.905 -102.003 2386
-118.502 -102.296 2393
-114.119 -102.631 2401
-109.568 -102.838 2406
-105.478 -103.516 2422
179.818 -274.668 6429
192.535 -274.593 6427
205.693 -275.117 6439
218.527 -275.173 6440
231.582 -275.484 6447
244.705 -275.84 6455
257.742 -276.068 6460
270.256 -275.742 6452
282.916 -275.586 6448
295.241 -275.133 6437
307.908 -275.022 6434
320.865 -275.169 6437
333.835 -275.316 6440
346.659 -275.336 6440
360.324 -275.998 6455
373.299 -276.104 6457
386.046 -276.041 6455
398.665 -275.892 6451
411.654 -276.001 6453
423.865 -275.598 6443
436.513 -275.494 6440
449.642 -275.691 6444
462.79 -275.889 6448
475.515 -275.83 6446
488.767 -276.072 6451
501.731 -276.143 6452
514.305 -276.002 6448
527.276 -276.075 6449
540.757 -276.405 6456
553.5 -276.352 6454
567.029 -276.684 6461
580.32 -276.889 6465
593.266 -276.923 6465
604.81 -276.315 6450
618.597 -276.736 6459
632.23 -277.072 6466
645.497 -277.238 6469
658.883 -277.447 6473
673.016 -277.958 6484
685.084 -277.611 6475
698.307 -277.737 6477
710.556 -277.478 6470
723.901 -277.648 6473
737.377 -277.862 6477
750.296 -277.863 6476
762.863 -277.735 6472
776.86 -278.124 6480
789.31 -277.955 6475
802.738 -278.13 6478
816.311 -278.349 6482
829.011 -278.268 6479
842.485 -278.446 6482
857.034 -278.968 6493
871.367 -279.405 6502
884.791 -279.542 6504
1091.67 -286.076 6637
1106.05 -286.356 6642
1118.44 -286.12 6635
1132.35 -286.272 6637
1146.96 -286.598 6643
1160.91 -286.752 6645
1174.35 -286.778 6644
1190.83 -287.538 6660
1204.13 -287.522 6658
1217.8 -287.594 6658
1231.85 -287.752 6660
1244.8 -287.653 6656
1256.79 -287.337 6647
1272.01 -287.758 6655
1287.27 -288.18 6663
1301.4 -288.342 6665
1314.77 -288.333 6663
1328.73 -288.455 6664
1341.5 -288.317 6659
1353.45 -288.007 6650
1367.84 -288.218 6653
1383.29 -288.646 6661
1397.32 -288.772 6662
1410.73 -288.768 6660
1424.36 -288.809 6659
1436.91 -288.634 6653
1450.98 -288.763 6654
1465.07 -288.893 6655
1478.95 -288.981 6655
1492.17 -288.939 6652
1505.39 -288.898 6649
1517.92 -288.727 6643
1530.44 -288.557 6637
1544.58 -288.692 6638
1561.32 -289.307 6650
1576.7 -289.662 6656
1589.02 -289.451 6649
1602.28 -289.416 6646
1615.3 -289.338 6642
1628.81 -289.348 6640
1640.84 -289.097 6632
1660.58 -290.199 6655
1675.66 -290.473 6659
1690.01 -290.618 6660
-324.067 -96.4424 2353
-318.898 -96.3015 2350
-314.012 -96.2429 2349
-307.683 -95.7341 2337
-301.924 -95.3893 2329
-296.839 -95.2498 2326
-291.893 -95.1515 2324
-286.834 -95.0126 2321
-282.276 -95.0377 2322
-277.955 -95.1448 2325
-272.567 -94.884 2319
-267.783 -94.828 2318
-262.778 -94.6906 2315
-258.01 -94.6352 2314
-253.248 -94.5801 2313
-248.492 -94.5252 2312
-243.743 -94.4707 2311
-238.896 -94.3756 2309
-234.667 -94.5259 2313
-230.127 -94.5538 2314
-225.486 -94.5412 2314
-221.134 -94.6513 2317
-216.678 -94.721 2319
-211.759 -94.5865 2316
-206.854 -94.4524 2313
-202.399 -94.5227 2315
-197.853 -94.5525 2316
-193.22 -94.5415 2316
-188.834 -94.6534 2319
-184.596 -94.8472 2324
-180.185 -94.9595 2327
-175.989 -95.1944 2333
-171.551 -95.3073 2336
-167.03 -95.3795 2338
-162.642 -95.5335 2342
-158.172 -95.647 2345
-153.691 -95.7607 2348
-149.453 -96.0378 2355
-145.189 -96.315 2362
-140.66 -96.4295 2365
-136.062 -96.5034 2367
-131.625 -96.6998 2372
-127.061 -96.815 2375
-122.692 -97.0934 2382
-118.297 -97.3721 2389
-113.922 -97.6916 2397
-109.425 -97.9301 2403
-105.167 -98.4131 2415
167.32 -262.325 6440
179.948 -262.09 6434
192.644 -261.978 6431
205.809 -262.477 6443
218.379 -262.204 6436
231.282 -262.339 6439
244.464 -262.759 6449
257.567 -263.058 6456
270.199 -262.869 6451
282.944 -262.803 6449
295.408 -262.493 6441
308.034 -262.346 6437
320.946 -262.445 6439
333.661 -262.382 6437
346.64 -262.523 6440
360.247 -263.113 6454
373.163 -263.174 6455
385.725 -262.991 6450
398.334 -262.849 6446
411.184 -262.872 6446
423.512 -262.569 6438
436.624 -262.756 6442
449.826 -262.984 6447
463.481 -263.458 6458
476.152 -263.362 6455
489.27 -263.511 6458
501.703 -263.293 6452
514.197 -263.117 6447
527.001 -263.105 6446
540.56 -263.461 6454
553.468 -263.491 6454
567.084 -263.849 6462
580.018 -263.881 6462
592.865 -263.872 6461
604.682 -263.415 6449
618.275 -263.735 6456
632.194 -264.178 6466
645.26 -264.254 6467
658.438 -264.372 6469
672.252 -264.736 6477
684.411 -264.447 6469
697.405 -264.485 6469
723.636 -264.646 6471
737.221 -264.891 6476
750.833 -265.137 6481
763.409 -265.015 6477
777.295 -265.344 6484
789.996 -265.265 6481
803.807 -265.555 6487
817.145 -265.682 6489
829.986 -265.646 6487
843.736 -265.897 6492
858.041 -266.313 6501
872.389 -266.73 6510
885.965 -266.902 6513
1079.37 -273.031 6645
1092.6 -273.01 6643
1106.82 -273.235 6647
1119.9 -273.175 6644
1134.33 -273.443 6649
1148.1 -273.549 6650
1161.89 -273.654 6651
1174.99 -273.597 6648
1190.58 -274.116 6659
1203.88 -274.101 6657
1218.83 -274.457 6664
1233.07 -274.649 6667
1246.22 -274.596 6664
1258.61 -274.378 6657
1273.46 -274.696 6663
1288.36 -275.015 6669
1301.92 -275.047 6668
1315.88 -275.162 6669
1329.85 -275.278 6670
1342.84 -275.188 6666
1354.6 -274.852 6656
1369.2 -275.094 6660
1384.25 -275.419 6666
1397.45 -275.374 6663
1411.71 -275.536 6665
1424.28 -275.368 6659
1434.89 -274.829 6644
1449.15 -274.993 6646
1464.98 -275.448 6655
1479.08 -275.573 6656
1493.87 -275.823 6660
1508.69 -276.074 6664
1521.49 -275.953 6659
1533.58 -275.708 6651
1547.98 -275.879 6653
1564.28 -276.382 6663
1578.27 -276.472 6663
1591.55 -276.437 6660
1616.18 -276.039 6646
1629.94 -276.09 6645
1643.22 -276.059 6642
1662.73 -277.067 6664
1678.33 -277.413 6670
1691.68 -277.384 6667
-329.373 -91.9093 2357
-323.499 -91.5801 2349
-318.474 -91.4852 2347
-313.326 -91.3515 2344
-307.272 -90.9453 2334
-301.519 -90.6175 2326
-296.695 -90.5627 2325
-291.5 -90.3912 2321
-286.819 -90.3759 2321
-282.139 -90.3608 2321
-277.582 -90.3849 2322
-272.552 -90.2537 2319
-267.653 -90.1615 2317
-262.763 -90.0698 2315
-257.996 -90.017 2314
-253.344 -90.0035 2314
-248.586 -89.9514 2313
-243.73 -89.8606 2311
-239.09 -89.8479 2311
-234.655 -89.9131 2313
-230.214 -89.9785 2315
-225.572 -89.9665 2315
-221.027 -89.9935 2316
-216.386 -89.9821 2316
-211.565 -89.893 2314
-206.842 -89.8432 2313
-202.301 -89.8712 2314
-197.671 -89.8607 2314
-193.126 -89.8891 2315
-188.824 -90.0344 2319
-184.506 -90.1799 2323
-180.407 -90.442 2330
-175.98 -90.549 2333
-171.688 -90.7339 2338
-167.021 -90.725 2338
-162.703 -90.9103 2343
-158.096 -90.9406 2344
-153.944 -91.2429 2352
-149.699 -91.5064 2359
-145.304 -91.6926 2364
-140.831 -91.8401 2368
-136.17 -91.8717 2369
-131.673 -92.0197 2373
-127.108 -92.1293 2376
-122.686 -92.3553 2382
-118.142 -92.5041 2386
-114.011 -93.0019 2399
-109.374 -93.1124 2402
-104.857 -93.3393 2408
167.103 -249.214 6432
179.827 -249.145 6430
192.604 -249.155 6430
205.702 -249.552 6440
218.333 -249.37 6435
231.198 -249.459 6437
244.299 -249.782 6445
257.554 -250.221 6456
270.31 -250.158 6454
283.236 -250.249 6456
295.667 -249.916 6447
308.304 -249.777 6443
321.177 -249.832 6444
333.747 -249.655 6439
346.568 -249.673 6439
360.005 -250.118 6450
372.854 -250.137 6450
385.406 -249.963 6445
398.188 -249.945 6444
411.226 -250.083 6447
423.817 -249.95 6443
436.736 -250.011 6444
449.801 -250.15 6447
463.457 -250.601 6458
476.201 -250.548 6456
489.167 -250.612 6457
501.831 -250.522 6454
514.487 -250.432 6451
527.381 -250.46 6451
540.698 -250.682 6456
553.695 -250.75 6457
593.567 -251.306 6469
605.587 -250.949 6459
619.199 -251.253 6466
632.746 -251.52 6472
645.226 -251.359 6467
658.912 -251.666 6474
672.838 -252.051 6483
697.799 -251.734 6473
711.026 -251.849 6475
723.708 -251.77 6472
737.181 -251.964 6476
750.328 -252.042 6477
763.957 -252.277 6482
777.733 -252.551 6488
790.807 -252.593 6488
804.755 -252.908 6495
818.109 -253.028 6497
830.709 -252.916 6493
844.86 -253.272 6501
859.447 -253.746 6512
873.414 -254.025 6518
887.005 -254.189 6521
1065.12 -259.494 6641
1077.52 -259.277 6634
1091.55 -259.452 6637
1104.93 -259.471 6636
1118.32 -259.491 6635
1133.07 -259.825 6642
1147.18 -260.004 6645
1161.3 -260.183 6648
1176.16 -260.519 6655
1190.52 -260.738 6659
1203.45 -260.646 6655
1218.58 -261.024 6663
1232.27 -261.09 6663
1244.66 -260.881 6656
1258.16 -260.909 6655
1271.87 -260.977 6655
1286.16 -261.163 6658
1300.48 -261.35 6661
1314.42 -261.459 6662
1328.58 -261.609 6664
1342.76 -261.759 6666
1384.59 -262.057 6668
1397.37 -261.935 6663
1411.21 -262.011 6663
1422.91 -261.694 6653
1433.3 -261.141 6637
1448.86 -261.534 6645
1464.24 -261.888 6652
1478.78 -262.085 6655
1492.89 -262.205 6656
1508.61 -262.601 6664
1521.18 -262.447 6658
1534.19 -262.371 6654
1548.83 -262.573 6657
1563.96 -262.855 6662
1577.24 -262.821 6659
1592.42 -263.104 6664
1604.27 -262.835 6655
1632.3 -263.011 6655
1645.35 -262.942 6651
1663.14 -263.625 6666
1677.98 -263.834 6669
1691.59 -263.847 6667
1703.66 -263.623 6659
1717.27 -263.636 6657
-328.797 -87.0468 2353
-323.069 -86.7716 2346
-317.915 -86.6444 2343
-312.642 -86.4806 2339
-307.256 -86.2802 2334
-301.763 -86.0431 2328
-296.424 -85.8433 2323
-291.736 -85.8284 2323
-287.298 -85.8879 2325
-282.246 -85.7628 2322
-277.567 -85.7487 2322
-272.773 -85.698 2321
-267.985 -85.6474 2320
-262.977 -85.5234 2317
-258.094 -85.4364 2315
-253.331 -85.3867 2314
-248.574 -85.3373 2313
-243.717 -85.2512 2311
-239.077 -85.239 2311
-234.846 -85.3747 2315
-230.202 -85.363 2315
-225.755 -85.4254 2317
-220.92 -85.3405 2315
-216.188 -85.2927 2314
-211.371 -85.2082 2312
-206.742 -85.1979 2312
-202.115 -85.1875 2312
-197.746 -85.2881 2315
-193.2 -85.3152 2316
-188.814 -85.4162 2319
-184.259 -85.4437 2320
-180.166 -85.6922 2327
-175.744 -85.7938 2330
-171.533 -86.0062 2336
-166.798 -85.9609 2335
-162.556 -86.1735 2341
-158.088 -86.2759 2344
-153.871 -86.5257 2351
-149.501 -86.7021 2356
-145.235 -86.9525 2363
-140.704 -87.0557 2366
-136.163 -87.1592 2369
-131.611 -87.2628 2372
-127.048 -87.3667 2375
-122.525 -87.5077 2379
-117.987 -87.6487 2383
-113.625 -87.9372 2391
-108.959 -88.0053 2393
167.042 -236.357 6430
179.79 -236.329 6429
192.624 -236.411 6431
205.692 -236.752 6440
218.322 -236.579 6435
231.221 -236.7 6438
244.324 -237.006 6446
257.78 -237.607 6462
270.505 -237.51 6459
283.748 -237.854 6468
296.294 -237.612 6461
309.054 -237.553 6459
321.759 -237.458 6456
334.248 -237.217 6449
346.711 -236.976 6442
359.819 -237.178 6447
372.718 -237.233 6448
385.506 -237.215 6447
398.539 -237.345 6450
411.779 -237.586 6456
424.651 -237.607 6456
437.595 -237.665 6457
450.615 -237.761 6459
463.792 -237.931 6463
476.471 -237.844 6460
489.597 -237.978 6463
502.117 -237.819 6458
514.86 -237.771 6456
527.845 -237.834 6457
541.089 -238.007 6461
554.353 -238.182 6465
594.271 -238.71 6477
606.681 -238.519 6471
619.933 -238.66 6474
632.91 -238.692 6474
646.589 -238.982 6481
659.692 -239.051 6482
724.342 -239.077 6478
737.371 -239.114 6478
751.332 -239.446 6486
764.86 -239.632 6490
778.891 -239.966 6498
791.985 -240.005 6498
806.077 -240.341 6506
819.073 -240.345 6505
831.818 -240.275 6502
845.596 -240.502 6507
859.797 -240.84 6515
873.771 -241.106 6521
887.911 -241.409 6528
1077.63 -246.014 6635
1091.66 -246.18 6638
1104.71 -246.125 6635
1118.43 -246.218 6636
1131.65 -246.2 6634
1145.91 -246.407 6638
1160.2 -246.613 6642
1175.57 -247.044 6652
1189.74 -247.215 6655
1204.11 -247.424 6659
1219.25 -247.783 6667
1231.83 -247.622 6661
1244.4 -247.462 6655
1257.72 -247.451 6653
1271.61 -247.552 6654
1285.13 -247.58 6653
1300.41 -247.943 6661
1313.76 -247.935 6659
1328.12 -248.115 6662
1341.69 -248.145 6661
1356.08 -248.326 6664
1369.88 -248.395 6664
1383.69 -248.465 6664
1396.04 -248.275 6657
1410.29 -248.421 6659
1420.27 -247.822 6641
1431.71 -247.484 6630
1448.13 -248.006 6642
1463.94 -248.416 6651
1477.37 -248.417 6649
1492.82 -248.754 6656
1508.08 -249.056 6662
1520.41 -248.871 6655
1534.34 -248.95 6655
1548.98 -249.141 6658
1563.17 -249.258 6659
1577.62 -249.414 6661
1591.14 -249.42 6659
1603.46 -249.24 6652
1645.26 -249.453 6651
1662.8 -250.064 6665
1677.14 -250.188 6666
1690.48 -250.162 6663
1703.06 -250.024 6657
-333.547 -82.3567 2353
-329.479 -82.516 2358
-323.191 -82.1155 2347
-317.899 -81.9604 2343
-312.76 -81.8404 2340
-306.977 -81.5459 2332
-301.359 -81.2867 2325
-296.665 -81.2725 2325
-291.722 -81.1886 2323
-287.037 -81.1748 2323
-282.232 -81.1264 2322
-277.554 -81.1131 2322
-272.525 -80.9953 2319
-267.857 -80.9823 2319
-262.964 -80.9 2317
-258.304 -80.8876 2317
-253.209 -80.7359 2313
-248.561 -80.724 2313
-243.6 -80.6076 2310
-238.962 -80.5961 2310
-234.631 -80.6896 2313
-230.191 -80.7483 2315
-225.549 -80.7376 2315
-220.718 -80.6572 2313
-215.991 -80.6121 2312
-211.361 -80.6018 2312
-206.643 -80.5571 2311
-202.105 -80.5824 2312
-197.737 -80.6775 2315
-193.024 -80.6333 2314
-188.723 -80.7636 2318
-184.329 -80.8594 2321
-180.234 -81.0946 2328
-175.736 -81.1558 2330
-171.377 -81.2869 2334
-166.862 -81.3486 2336
-162.617 -81.5498 2342
-158.013 -81.5771 2343
-153.798 -81.8134 2350
-149.621 -82.0847 2358
-145.351 -82.3214 2365
-140.757 -82.3842 2367
-136.214 -82.4821 2370
-131.715 -82.615 2374
-127.148 -82.7132 2377
-122.622 -82.8466 2381
-117.982 -82.9104 2383
-113.667 -83.2181 2392
-108.953 -83.2477 2393
167.008 -223.545 6429
179.921 -223.727 6434
192.824 -223.874 6438
205.873 -224.162 6446
218.515 -223.998 6441
231.461 -224.148 6445
244.54 -224.402 6452
257.927 -224.901 6466
270.618 -224.774 6462
283.734 -224.996 6468
296.463 -224.905 6465
309.279 -224.885 6464
321.943 -224.76 6460
334.646 -224.671 6457
347.179 -224.479 6451
359.913 -224.426 6449
372.7 -224.408 6448
385.427 -224.356 6446
398.52 -224.514 6450
411.44 -224.568 6451
424.499 -224.692 6454
437.438 -224.747 6455
450.315 -224.768 6455
463.339 -224.859 6457
476.374 -224.951 6459
489.422 -225.043 6461
502.404 -225.102 6462
515.314 -225.126 6462
528.637 -225.324 6467
541.9 -225.489 6471
555.27 -225.69 6476
568.576 -225.855 6480
594.701 -225.98 6482
607.308 -225.869 6478
620.094 -225.828 6476
633.758 -226.102 6483
647.156 -226.272 6487
659.456 -226.058 6480
698.591 -226.19 6481
711.504 -226.188 6480
724.754 -226.292 6482
738.131 -226.431 6485
752.222 -226.781 6494
765.648 -226.922 6497
779.452 -227.168 6503
792.678 -227.24 6504
806.285 -227.418 6508
818.781 -227.281 6503
831.649 -227.251 6501
845.555 -227.5 6507
859.36 -227.716 6512
873.594 -228.037 6520
888.276 -228.463 6531
1066.62 -233.224 6651
1079.36 -233.1 6646
1093.91 -233.362 6652
1107.15 -233.345 6650
1120.9 -233.433 6651
1134.33 -233.452 6650
1147.75 -233.472 6649
1161.54 -233.562 6650
1175.86 -233.758 6654
1189.5 -233.815 6654
1202.79 -233.802 6652
1218.09 -234.176 6661
1231.03 -234.095 6657
1244.16 -234.048 6654
1257.09 -233.968 6650
1272.69 -234.381 6660
1285.84 -234.336 6657
1300.93 -234.645 6664
1314.49 -234.673 6663
1329.05 -234.877 6667
1341.82 -234.765 6662
1355.4 -234.795 6661
1369.19 -234.86 6661
1382.37 -234.821 6658
1394.3 -234.57 6649
1408.1 -234.638 6649
1419.35 -234.283 6637
1429.91 -233.822 6622
1445.66 -234.209 6631
1461.45 -234.598 6640
1475.96 -234.775 6643
1491.84 -235.165 6652
1508.46 -235.661 6664
1520.56 -235.452 6656
1534.26 -235.491 6655
1547.74 -235.495 6653
1560.98 -235.464 6650
1575.18 -235.575 6651
1647.41 -236.286 6660
1663.72 -236.686 6669
1677.31 -236.697 6667
1688.88 -236.424 6657
1701.7 -236.329 6652
1716.06 -236.448 6653
-333.107 -77.5518 2350
-328.766 -77.6358 2353
-323.314 -77.4563 2348
-318.02 -77.3099 2344
-312.879 -77.1968 2341
-307.095 -76.9191 2333
-301.604 -76.7077 2327
-296.779 -76.6613 2326
-291.583 -76.5164 2322
-286.529 -76.4045 2319
-281.733 -76.3588 2318
-277.182 -76.3793 2319
-272.16 -76.2682 2316
-267.382 -76.2232 2315
-262.838 -76.2442 2316
-257.958 -76.1668 2314
-252.759 -75.9908 2309
-248.013 -75.9467 2308
-243.483 -75.9685 2309
-238.744 -75.925 2308
-234.519 -76.046 2312
-229.981 -76.0684 2313
-225.539 -76.1241 2315
-220.708 -76.0483 2313
-215.981 -76.0057 2312
-211.26 -75.9632 2311
-206.723 -75.9868 2312
-202.009 -75.9448 2311
-197.728 -76.0674 2315
-193.265 -76.1244 2317
-188.796 -76.1816 2319
-184.321 -76.239 2321
-180.149 -76.4279 2327
-175.577 -76.4529 2328
-171.296 -76.6093 2333
-166.783 -76.6674 2335
-162.54 -76.8571 2341
-158.005 -76.9155 2343
-153.857 -77.1713 2351
-149.55 -77.3614 2357
-145.221 -77.5519 2363
-140.632 -77.6111 2365
-136.265 -77.8018 2371
